# .PCD v0.7 - Point Cloud Data file format
VERSION 0.7
FIELDS x y z rgb
SIZE 4 4 4 4
TYPE F F F F
COUNT 1 1 1 1
WIDTH 1000
HEIGHT 1
VIEWPOINT 0 0 0 1 0 0 0
POINTS 1000
DATA ascii
0.3299982 0.32542324 0.58024251 2.5814776e-39
0.3299982 0.32824579 0.58024251 2.5814776e-39
0.3299982 0.33106831 0.58024251 2.5814776e-39
0.3299982 0.33389089 0.58024251 2.5814776e-39
0.3299982 0.33741903 0.58024251 2.5814776e-39
0.3299982 0.34094724 0.58024251 2.5814776e-39
0.3299982 0.34376976 0.58024251 2.5814776e-39
0.3299982 0.34659231 0.58024251 2.5814776e-39
0.3299982 0.34941486 0.58024251 2.5814776e-39
0.3299982 0.35223737 0.58024251 2.5814776e-39
0.3299982 0.35505995 0.58024251 2.5814776e-39
0.3299982 0.3585881 0.58024251 2.5814776e-39
0.3299982 0.36211631 0.58024251 2.5814776e-39
0.3299982 0.36493883 0.58024251 2.5814776e-39
0.3299982 0.36776137 0.58024251 2.5814776e-39
0.3299982 0.37058392 0.58024251 2.5814776e-39
0.3299982 0.37340644 0.58024251 2.5814776e-39
0.3299982 0.37622902 0.58024251 2.5814776e-39
0.3299982 0.37905154 0.58024251 2.5814776e-39
0.3299982 0.38257971 0.58024251 2.5814776e-39
0.3299982 0.38610789 0.58024251 2.5814776e-39
0.3299982 0.38893044 0.58024251 2.5814776e-39
0.3299982 0.39175299 0.58024251 2.5814776e-39
0.3299982 0.39457551 0.58024251 2.5814776e-39
0.3299982 0.39739808 0.58024251 2.5814776e-39
0.51508951 -0.32221353 0.63489819 4.150328e-39
0.51622099 -0.32383639 0.63599068 3.3205687e-39
0.51499844 -0.31976628 0.63503385 2.8599605e-39
0.51638389 -0.3141177 0.63482302 2.8599577e-39
0.51718783 -0.31096175 0.6345554 2.8599577e-39
0.51879978 -0.30493057 0.63494337 2.8599577e-39
0.52040887 -0.29888287 0.63534105 2.8599577e-39
0.52090609 -0.29600269 0.63460839 2.8599577e-39
0.52166575 -0.29012129 0.63441384 2.8599577e-39
0.5221042 -0.2888785 0.63561785 2.8599577e-39
0.52233624 -0.28662205 0.63527727 2.8599577e-39
0.52264923 -0.28361231 0.63481778 2.8599577e-39
0.52349788 -0.27723119 0.63449621 2.8599577e-39
0.52385819 -0.27439868 0.63442999 2.8599577e-39
0.50091952 -0.27165017 0.63599753 6.0766103e-39
0.5246911 -0.26815316 0.63459748 2.9517932e-39
0.52542144 -0.26221195 0.63445288 1.1524457e-38
0.52577657 -0.25963318 0.63439584 1.1708845e-38
0.52622575 -0.25717306 0.63512647 1.1708845e-38
0.52659512 -0.25416359 0.6345883 1.1801041e-38
0.52752507 -0.24794295 0.6346181 1.1801041e-38
0.52801484 -0.24389587 0.63529086 1.1801041e-38
0.52817464 -0.24156794 0.63505894 1.1801041e-38
0.52838784 -0.23846188 0.63474941 1.1801041e-38
0.52860129 -0.23535325 0.63443959 1.1801041e-38
0.52972919 -0.22410908 0.63557088 1.1801041e-38
0.52998269 -0.22101162 0.6352042 1.1801041e-38
0.53026438 -0.21792401 0.63479698 1.1801041e-38
0.53149492 -0.20875438 0.63486177 1.1801041e-38
0.53196901 -0.20530909 0.63510042 1.1801041e-38
0.53235465 -0.202252 0.63454473 1.1708845e-38
0.53329718 -0.19596398 0.63456905 8.8515302e-39
0.53387773 -0.19355474 0.63511741 7.4686111e-39
0.53420025 -0.19207309 0.6346544 3.6893498e-39
0.53531229 -0.18745232 0.63444 2.8599577e-39
0.53594017 -0.18505627 0.63492316 2.8599577e-39
0.53737348 -0.17912461 0.63471526 2.8599577e-39
0.53822112 -0.17579585 0.63442773 2.9517932e-39
0.539231 -0.17292547 0.63482964 2.8595975e-39
0.54132575 -0.16679169 0.6346159 5.2382625e-39
0.54321003 -0.16260019 0.6356281 6.2448278e-39
0.54390311 -0.1603992 0.63465142 5.4215705e-39
0.51444131 -0.066125125 0.63586402 8.9429761e-39
0.51288325 -0.064454682 0.63541365 8.9429761e-39
0.50977612 -0.061123349 0.63451546 8.9429761e-39
0.51132816 -0.062787428 0.63496411 8.9429761e-39
0.50484067 -0.055520434 0.63455647 1.0418106e-38
0.50304103 -0.052256685 0.63451028 1.1616647e-38
0.52799809 -0.051675197 0.63448691 1.1524089e-38
0.50162619 -0.049556032 0.63434744 1.1616647e-38
0.50039989 -0.047099285 0.63483298 1.1524087e-38
0.49869099 -0.043871485 0.63466763 1.1616282e-38
0.49699464 -0.040653251 0.63449037 1.1616286e-38
0.49613005 -0.037479296 0.63442969 1.1431898e-38
0.49926186 -0.034223616 0.63472009 1.1522653e-38
0.50229752 -0.03148476 0.63471693 1.1430097e-38
0.50890827 -0.025466982 0.63443255 1.1616289e-38
0.51151252 -0.023183916 0.63468754 1.1430097e-38
0.51333421 -0.02166345 0.63473928 1.1337181e-38
0.5151614 -0.020138446 0.63479114 1.1336461e-38
0.5169614 -0.018606246 0.63489163 1.1335381e-38
0.52320707 -0.019045524 0.63493913 8.7243721e-39
0.50589842 -0.015112703 0.63562953 6.6121557e-39
0.51876271 -0.017069362 0.6349982 1.0875123e-38
0.52056909 -0.015528098 0.63510495 1.0414505e-38
0.5232842 -0.013207067 0.63527292 9.3031014e-39
0.52675772 -0.010121746 0.63435102 6.1651822e-39
0.52950472 -0.0077770855 0.63451201 5.9800692e-39
0.53134537 -0.006208132 0.63461637 6.0719047e-39
0.543966 0.0048979912 0.63456273 6.0719047e-39
0.54575551 0.0065069217 0.63480079 6.1633815e-39
0.54754961 0.0081199836 0.63503945 6.1630227e-39
0.55047011 0.010812321 0.63463295 6.2544995e-39
0.55386937 0.013790434 0.63450009 6.4378118e-39
0.56771547 0.026150171 0.63480592 6.8966347e-39
0.56934702 0.027815495 0.63534904 7.9071965e-39
0.57448697 0.032293107 0.63486004 1.0124953e-38
0.58067036 0.037375491 0.6348744 1.0311144e-38
0.58233476 0.036234107 0.63573229 1.0045721e-38
0.58778632 0.043073051 0.63557392 1.0217509e-38
0.59050494 0.044821132 0.6347751 1.0216068e-38
0.46111861 0.19437194 0.63437593 7.3727595e-39
0.46374604 0.1945859 0.63567621 7.7415406e-39
0.4580465 0.19529623 0.63526386 4.696917e-39
0.45097834 0.2001483 0.63585484 5.4402708e-39
0.44931266 0.20234996 0.63442558 4.5139719e-39
0.44757682 0.20505477 0.63455176 4.606892e-39
0.4454422 0.20839731 0.63490099 4.9771207e-39
0.44310734 0.21210897 0.63417876 4.6068906e-39
0.44164246 0.21449482 0.63482201 5.0700408e-39
0.40896076 0.21682529 0.6338855 1.0694693e-38
0.43951681 0.21737421 0.63471669 4.9771221e-39
0.43647012 0.22136211 0.63433462 4.6068906e-39
0.43824422 0.21908312 0.63503903 5.1625993e-39
0.43405586 0.22447874 0.63381588 4.236299e-39
0.43519664 0.2230574 0.63467133 4.8842034e-39
0.43271223 0.22629373 0.63476866 4.7916476e-39
0.43088132 0.22933984 0.63443524 4.6065305e-39
0.42801172 0.23479436 0.63598365 5.4409925e-39
0.42778865 0.24190469 0.6344589 6.2678609e-39
0.42893577 0.24412598 0.63431907 6.9121443e-39
0.42991322 0.24558648 0.6354503 6.8206703e-39
0.52232587 -0.32983369 0.63805652 6.2700525e-39
0.51829255 -0.32536006 0.63845921 2.7673991e-39
0.51706529 -0.32287687 0.63750815 3.1365544e-39
0.51574343 -0.3195357 0.63669956 3.0443573e-39
0.51668274 -0.31943804 0.63807398 3.1365544e-39
0.51575333 -0.31715941 0.63668489 2.8599577e-39
0.51629168 -0.31597662 0.63773054 2.9521575e-39
0.51688492 -0.31322032 0.63777506 2.8599577e-39
0.51768756 -0.31007031 0.63750947 2.8599577e-39
0.51832992 -0.30760416 0.6374827 2.8599577e-39
0.51897103 -0.30513376 0.6374594 2.8599577e-39
0.51928985 -0.30374783 0.63698971 2.8599577e-39
0.51993346 -0.30142298 0.6374234 2.8599577e-39
0.52073753 -0.29840168 0.63762403 2.8599577e-39
0.52152354 -0.29521385 0.63739073 2.8599577e-39
0.52171791 -0.2926344 0.63618487 2.8599577e-39
0.52221996 -0.29227096 0.63821137 2.8599577e-39
0.52252889 -0.28926986 0.63775963 2.8599577e-39
0.52283812 -0.28626511 0.63730729 2.8599577e-39
0.52339822 -0.28308022 0.63786793 2.8599577e-39
0.52370822 -0.28006977 0.63741535 2.8599577e-39
0.52407485 -0.27724859 0.63734055 2.8599577e-39
0.52456623 -0.27385846 0.63754445 2.9517932e-39
0.52486634 -0.27083233 0.63710719 3.1361816e-39
0.52527416 -0.2679238 0.63743216 6.0860508e-39
0.52561569 -0.26534614 0.63739479 9.312144e-39
0.52608371 -0.26290202 0.63809425 1.1708845e-38
0.52638239 -0.25986549 0.63766062 1.1801041e-38
0.52668148 -0.25682548 0.63722646 1.1801041e-38
0.52722275 -0.25361812 0.63781893 1.1801041e-38
0.52756137 -0.25059336 0.63732821 1.1801041e-38
0.52811193 -0.24738836 0.63790983 1.1801041e-38
0.52835035 -0.24430507 0.63756502 1.1801041e-38
0.52856338 -0.24120571 0.63725704 1.1801041e-38
0.52877641 -0.23810378 0.63694888 1.1801041e-38
0.52897394 -0.23499137 0.6366632 1.1801041e-38
0.52924073 -0.23244281 0.63765454 1.1801041e-38
0.52943379 -0.22977285 0.63783526 1.1801041e-38
0.52959484 -0.22717582 0.63760298 1.1801041e-38
0.52990794 -0.22367123 0.63807023 1.1801041e-38
0.53016108 -0.22057904 0.63770545 1.1801041e-38
0.5304395 -0.21749541 0.63730425 1.1801041e-38
0.53081554 -0.21445307 0.63676244 1.1801041e-38
0.53128481 -0.21120057 0.63746321 1.1801041e-38
0.53175402 -0.20794868 0.63816607 1.1801041e-38
0.53213859 -0.20490134 0.63761407 1.1801041e-38
0.53253067 -0.20185247 0.63705122 1.1801041e-38
0.53292942 -0.19880158 0.63647878 1.1801041e-38
0.53346705 -0.19695291 0.63846028 1.1708845e-38
0.53391552 -0.1947255 0.63781899 1.1616651e-38
0.53421491 -0.19323827 0.63739073 1.0879094e-38
0.53482753 -0.19065209 0.63743138 4.795326e-39
0.53544599 -0.18806541 0.63746518 2.8599577e-39
0.5362227 -0.18473098 0.63727546 2.8599577e-39
0.53685141 -0.18233943 0.63775384 2.8599577e-39
0.53717399 -0.1808494 0.63729501 2.8599577e-39
0.53780174 -0.17845398 0.63777828 2.8599577e-39
0.53870249 -0.17515254 0.63741553 2.8599577e-39
0.53972107 -0.17229028 0.63780493 2.8599577e-39
0.54087496 -0.16927117 0.63754654 2.8595961e-39
0.54231972 -0.16594607 0.63779777 3.5002698e-39
0.54274911 -0.16406411 0.63627768 5.8789347e-39
0.54353118 -0.1631372 0.63792384 5.1467899e-39
0.54472995 -0.1601111 0.63761294 5.2382611e-39
0.49768543 -0.076973908 0.63706636 9.0074414e-39
0.52106905 -0.07290753 0.63713735 9.863852e-39
0.52307105 -0.074676663 0.63696676 1.2076907e-38
0.51756626 -0.069475599 0.63676751 8.942616e-39
0.51913333 -0.07115566 0.63722044 8.9418957e-39
0.5160023 -0.067798764 0.63631535 8.9429761e-39
0.51261562 -0.06422095 0.6385842 8.9393748e-39
0.50964183 -0.060919918 0.63749546 8.9411754e-39
0.51112747 -0.062569074 0.63803941 8.9404552e-39
0.50667793 -0.057629764 0.63641036 8.942616e-39
0.50815868 -0.059273489 0.63695246 8.9418957e-39
0.50498837 -0.05508323 0.63757902 1.0509582e-38
0.50327045 -0.051839344 0.63740987 1.1616649e-38
0.50206006 -0.049383894 0.63786364 1.1708844e-38
0.50035065 -0.046156265 0.63769454 1.1616645e-38
0.50120473 -0.047769062 0.6377781 1.1616286e-38
0.49921265 -0.044009369 0.63758284 1.1523728e-38
0.49750662 -0.040795341 0.63742089 1.1523732e-38
0.49635229 -0.037613224 0.63734311 1.1059154e-38
0.49941081 -0.034357429 0.63774419 1.0590613e-38
0.50279486 -0.031363163 0.63813424 1.0310065e-38
0.50570565 -0.028657177 0.63695532 1.0684249e-38
0.5070489 -0.027599115 0.63862455 9.8444048e-39
0.50859976 -0.026123466 0.63767421 1.0218589e-38
0.51015002 -0.024640981 0.6367327 1.0869361e-38
0.51186329 -0.023117643 0.63693905 1.0408383e-38
0.51361889 -0.021593716 0.63708937 1.003924e-38
0.51542431 -0.020069428 0.63717324 1.0312586e-38
0.51721787 -0.018539336 0.63728267 9.9430828e-39
0.51895928 -0.017000459 0.6374768 8.4708338e-39
0.52069831 -0.015457042 0.6376816 8.2846419e-39
0.49692115 -0.012077082 0.6385265 8.9127249e-39
0.52331591 -0.01313391 0.63798976 8.4614647e-39
0.52684706 -0.010024542 0.63836503 6.8919698e-39
0.52959502 -0.0076873228 0.63852108 7.9007225e-39
0.53144389 -0.0061237197 0.63861132 8.1758703e-39
0.53325975 -0.0045817224 0.63738084 7.3522207e-39
0.53505087 -0.0030304659 0.63619506 6.6207653e-39
0.53633684 -0.0019446941 0.63802892 7.9010813e-39
0.51900226 0.00039595779 0.63852084 6.7151217e-39
0.53868747 0.00013936497 0.63652086 6.9863136e-39
0.54045981 0.0017328821 0.63676 7.2611026e-39
0.54223669 0.0033304635 0.63699973 7.4436974e-39
0.54401815 0.0049321279 0.63724017 7.7184865e-39
0.53551233 0.0088131893 0.63784498 1.0786889e-38
0.54580414 0.0065378882 0.63748109 7.9010813e-39
0.54756904 0.008148429 0.63775849 8.1758703e-39
0.55019754 0.010572769 0.63821405 8.3581063e-39
0.5538013 0.013816939 0.63870692 8.5414186e-39
0.55667204 0.016246907 0.63612854 7.3525794e-39
0.5585078 0.017885227 0.63635254 7.5355329e-39
0.56034845 0.019527869 0.63657707 7.7181277e-39
0.56219387 0.021174854 0.63680226 7.9010813e-39
0.56404424 0.022826195 0.63702798 8.1755116e-39
0.56589949 0.024481913 0.6372543 8.3584651e-39
0.56772614 0.026141772 0.63752639 8.4506607e-39
0.5697543 0.027807901 0.63753545 8.6343345e-39
0.57178915 0.029479448 0.63754457 8.7286895e-39
0.57485467 0.031997669 0.63755822 8.9127235e-39
0.57793361 0.034526855 0.63757199 9.0038401e-39
0.57999516 0.036220338 0.63758123 9.0049205e-39
0.58206344 0.037919372 0.63759047 9.0974763e-39
0.58413851 0.039623983 0.63759971 9.1903922e-39
0.58622044 0.041334204 0.637609 9.1911124e-39
0.58935702 0.043910816 0.63762307 9.3776645e-39
0.57791728 0.045750156 0.63701862 8.7243721e-39
0.59311604 0.046524592 0.63685477 9.7496882e-39
0.4581902 0.19494969 0.63785827 7.1934311e-39
0.45481744 0.19644195 0.63786548 6.456592e-39
0.45167443 0.19926241 0.63751376 5.99706e-39
0.44886649 0.20305975 0.63756567 5.9041427e-39
0.45005852 0.20127261 0.63742495 5.9970614e-39
0.44662833 0.20668076 0.63761175 6.0892584e-39
0.44746637 0.2053248 0.63759369 5.8123058e-39
0.44548857 0.2084751 0.63767529 5.9966998e-39
0.44358209 0.21146855 0.63716978 5.9966984e-39
0.4418439 0.2141276 0.63733315 5.99706e-39
0.43948242 0.21738666 0.6376434 6.0896171e-39
0.43724087 0.22043574 0.63775903 5.99706e-39
0.43457747 0.22399987 0.63720441 5.8119442e-39
0.43555439 0.22274537 0.63691205 5.9966998e-39
0.43280113 0.22658297 0.63748693 5.99706e-39
0.43099269 0.22971366 0.63735694 5.99706e-39
0.4294714 0.23240156 0.63720232 6.0888969e-39
0.42792505 0.23522702 0.63758028 5.9037825e-39
0.4268305 0.23785684 0.63811159 6.1818156e-39
0.4274506 0.24038774 0.63699454 6.2740098e-39
0.42965534 0.24444041 0.63735282 6.087085e-39
0.43137908 0.24777682 0.63714689 6.9146722e-39
0.4328447 0.24996679 0.63884312 7.3763749e-39
0.5197975 -0.3260721 0.64038032 2.6752021e-39
0.51837826 -0.32186908 0.63971126 3.1365544e-39
0.51960129 -0.32290074 0.6411258 3.0443559e-39
0.51809072 -0.31929171 0.6401341 3.1365544e-39
0.51758343 -0.31616139 0.64042181 3.1365544e-39
0.51760244 -0.31340954 0.64085197 2.9521603e-39
0.51786411 -0.31041124 0.64046657 2.8599577e-39
0.51866519 -0.30740717 0.64066601 2.8599577e-39
0.51951671 -0.30402061 0.64033252 2.8599577e-39
0.52026683 -0.30138966 0.6410678 2.8599577e-39
0.52106518 -0.29792193 0.63990021 2.8599577e-39
0.52165622 -0.29598203 0.64086848 2.8599577e-39
0.52250099 -0.29256824 0.64055353 2.8599577e-39
0.52317053 -0.28904065 0.64049357 2.8599577e-39
0.52351117 -0.2864809 0.64045572 2.8599577e-39
0.52394366 -0.28402331 0.64120066 2.8599577e-39
0.52418911 -0.2809816 0.64084446 2.8599577e-39
0.5244348 -0.27793697 0.64048785 2.8599577e-39
0.52468717 -0.27489316 0.64012146 3.2283773e-39
0.52494085 -0.27264553 0.63975322 5.3484942e-39
0.5252583 -0.27091858 0.64066505 9.8653121e-39
0.52554929 -0.26885274 0.64070117 1.1063483e-38
0.52603769 -0.26546353 0.64090985 1.1708845e-38
0.52640605 -0.26247439 0.64037704 1.1708846e-38
0.52677494 -0.25948098 0.63984358 1.1801041e-38
0.52727461 -0.25625789 0.64049315 1.1801041e-38
0.52777928 -0.25303769 0.6411373 1.1801041e-38
0.52814943 -0.25003576 0.64060402 1.1801041e-38
0.52850038 -0.24701925 0.64009833 1.1801041e-38
0.52870667 -0.24392349 0.63980103 1.1801041e-38
0.52901125 -0.24139643 0.64073324 1.1801041e-38
0.52919841 -0.23873077 0.64092106 1.1801041e-38
0.52929533 -0.23593535 0.64032465 1.1801041e-38
0.52959591 -0.23260953 0.6412642 1.1801041e-38
0.52977288 -0.22949335 0.64101017 1.1801041e-38
0.52995098 -0.22637552 0.64075446 1.1801041e-38
0.53012925 -0.22325553 0.64049864 1.1801041e-38
0.53033882 -0.22014803 0.64019775 1.1801041e-38
0.53061402 -0.21706834 0.63980263 1.1801041e-38
0.530891 -0.21478885 0.63940513 1.1801041e-38
0.53107285 -0.21381867 0.64051437 1.1801041e-38
0.53135979 -0.21209714 0.64147419 1.1801041e-38
0.53175598 -0.20906746 0.64090765 1.1801041e-38
0.53215271 -0.20603313 0.64034021 1.1801041e-38
0.53254998 -0.20299412 0.63977194 1.1801041e-38
0.53308022 -0.19977258 0.64038372 1.1801041e-38
0.53380662 -0.19663355 0.64071822 1.1801041e-38
0.53456682 -0.19331443 0.64054757 1.1524457e-38
0.53517836 -0.19073369 0.64059025 6.2704407e-39
0.53594077 -0.18740532 0.64042032 2.9517932e-39
0.53654206 -0.18442169 0.63956666 2.8599577e-39
0.53702807 -0.18337432 0.64161408 2.8599577e-39
0.53747988 -0.18113357 0.640975 2.8599577e-39
0.53808796 -0.17814189 0.6401149 2.8599577e-39
0.53903562 -0.17526364 0.64059943 2.8599577e-39
0.54044729 -0.17174597 0.64043289 2.8599577e-39
0.54169381 -0.16896704 0.64050364 2.8599577e-39
0.54261124 -0.16667083 0.64058203 2.8599577e-39
0.54339099 -0.16513188 0.64085668 2.8595975e-39
0.52902359 -0.16461194 0.63961679 1.0879084e-38
0.54408169 -0.16294265 0.63989061 3.5917438e-39
0.54530412 -0.1605487 0.64091504 4.0487478e-39
0.52471542 -0.076171756 0.64008051 1.068677e-38
0.52672541 -0.077948116 0.63991517 1.3087455e-38
0.52071697 -0.072638169 0.64040953 9.0272488e-39
0.52271253 -0.074401781 0.64024538 9.7648138e-39
0.51799256 -0.070051707 0.64027941 8.9368538e-39
0.5156523 -0.067542396 0.63959801 8.9382944e-39
0.51271617 -0.064051896 0.64119321 8.9328924e-39
0.51415503 -0.065789342 0.64043498 8.9343329e-39
0.5097481 -0.060757615 0.64010227 8.9379342e-39
0.51123101 -0.062403403 0.64064729 8.9361336e-39
0.50684553 -0.05739665 0.64031214 8.8396163e-39
0.50826776 -0.059114538 0.63955814 8.9386545e-39
0.50521487 -0.054661136 0.64046711 9.9477645e-39
0.50407124 -0.0525022 0.64035249 1.0870801e-38
0.50292969 -0.050347596 0.64023697 1.0590253e-38
0.50064898 -0.046048425 0.64001364 1.0496615e-38
0.50165051 -0.047603488 0.64125657 9.3773044e-39
0.49944031 -0.043610387 0.64047253 9.8433244e-39
0.49723577 -0.03962744 0.63969046 1.0217149e-38
0.49823511 -0.04117924 0.64093012 9.1903922e-39
0.49686018 -0.037240461 0.64026701 9.3801854e-39
0.49971005 -0.03426829 0.64006174 9.1911124e-39
0.50308949 -0.031278543 0.64045715 8.8187286e-39
0.50563496 -0.029026639 0.640755 8.8176482e-39
0.50733769 -0.027520217 0.64095414 8.8176482e-39
0.50895333 -0.02600101 0.6412909 8.1740794e-39
0.51052207 -0.024524186 0.64032423 7.4451576e-39
0.51218343 -0.023000164 0.64060622 6.0661846e-39
0.51381302 -0.021516386 0.63956505 6.8033895e-39
0.51552689 -0.019987255 0.6397835 8.4539075e-39
0.51724505 -0.018454235 0.64000255 7.6255874e-39
0.51897269 -0.016917706 0.64021462 5.6044862e-39
0.52070802 -0.015377458 0.64042258 6.7057919e-39
0.52332014 -0.013059119 0.64073539 7.3471998e-39
0.52688056 -0.0099584647 0.64106405 7.0713332e-39
0.52963758 -0.007626798 0.64120448 8.5407011e-39
0.5314827 -0.0060662981 0.64129853 8.7243721e-39
0.53332341 -0.00450073 0.64140677 8.7243721e-39
0.53604704 -0.0021411115 0.64163798 8.7243721e-39
0.53874981 0.00018274784 0.63917881 8.5414186e-39
0.5405187 0.0017731544 0.63942087 8.6332541e-39
0.54224873 0.0033691432 0.63972443 8.7247309e-39
0.5439828 0.0049689393 0.64002883 8.7243721e-39
0.54572099 0.0065725539 0.64033401 8.7243721e-39
0.54746336 0.0081800018 0.64063996 8.7243721e-39
0.55008531 0.010598871 0.64110023 8.7243721e-39
0.55365956 0.013835995 0.64162815 8.7243721e-39
0.55646253 0.016266912 0.64051247 8.6325366e-39
0.55836678 0.017894767 0.63927853 8.7243721e-39
0.56020153 0.019533616 0.63950825 8.7243721e-39
0.56296432 0.022000521 0.63985282 8.7243721e-39
0.56574929 0.024476167 0.64018184 8.7243721e-39
0.56760561 0.026132427 0.64041114 8.7243721e-39
0.56945783 0.027792986 0.64065319 8.7243721e-39
0.57133478 0.029458167 0.64086962 8.7243721e-39
0.57472223 0.031975225 0.64045328 8.7243721e-39
0.57812804 0.034505889 0.64003468 8.7243721e-39
0.58041084 0.036202136 0.63975406 8.7243721e-39
0.58258939 0.037902106 0.63962048 8.7247323e-39
0.58466309 0.039604835 0.63963306 8.8180083e-39
0.58674359 0.041313164 0.63964564 8.8180083e-39
0.58987808 0.043886911 0.63966471 8.8180083e-39
0.59302634 0.046471983 0.63968384 9.0045604e-39
0.4588421 0.19480267 0.63959348 7.4711026e-39
0.45969546 0.19473454 0.64098912 7.9328053e-39
0.45459339 0.19715288 0.63965696 7.2896079e-39
0.45696494 0.19634424 0.64085019 6.735711e-39
0.45163596 0.19958128 0.64041269 6.5509596e-39
0.453747 0.19831625 0.64108229 6.9204638e-39
0.44901165 0.20287362 0.64062804 6.1821743e-39
0.44686013 0.2063446 0.64005518 6.1821743e-39
0.4478218 0.2048284 0.6412425 6.1821757e-39
0.4456856 0.20829563 0.64065206 6.1821757e-39
0.44295397 0.21222915 0.64110172 6.1821757e-39
0.44428653 0.21036324 0.64022064 6.1818156e-39
0.44057006 0.21578233 0.63954949 6.1818156e-39
0.44198886 0.21373683 0.6399312 6.1818156e-39
0.43918982 0.21760657 0.64053011 6.1821757e-39
0.4373357 0.22017425 0.64092296 6.1821757e-39
0.43396115 0.22493669 0.63972706 6.1821757e-39
0.43560824 0.22262241 0.64062923 6.1818156e-39
0.43271449 0.22678593 0.64050376 6.1821757e-39
0.43104288 0.22939999 0.64061153 6.1821757e-39
0.42828631 0.23390579 0.64123642 6.1821757e-39
0.42944703 0.2320413 0.64059347 6.1821757e-39
0.42779434 0.23610969 0.64068526 6.1821757e-39
0.4278515 0.23907277 0.64058292 6.1821757e-39
0.42803732 0.2417718 0.64072758 6.4583982e-39
0.42970788 0.24586537 0.64155817 6.5498722e-39
0.51776379 -0.31243849 0.6447283 2.8599577e-39
0.51808453 -0.31078011 0.64334625 2.8599591e-39
0.51873136 -0.30832916 0.64331329 2.8599577e-39
0.51927459 -0.30674714 0.64388746 2.8599577e-39
0.51974219 -0.30482092 0.64366126 2.8599577e-39
0.52051497 -0.30165005 0.64344728 2.8599577e-39
0.52134311 -0.29865924 0.64360881 2.8599577e-39
0.52216339 -0.29565907 0.64378512 2.8599577e-39
0.52294755 -0.2924802 0.64355826 2.8599577e-39
0.52350706 -0.28995264 0.64365864 2.8599577e-39
0.5239746 -0.28657115 0.64389348 2.8599577e-39
0.5242306 -0.28354359 0.64352328 2.8599577e-39
0.52447575 -0.28050643 0.64316875 2.8599577e-39
0.52472115 -0.2774663 0.6428138 2.8599577e-39
0.52490538 -0.27518439 0.64254731 3.0439874e-39
0.52517742 -0.27385983 0.64397579 5.901661e-39
0.52544218 -0.27135903 0.64359397 1.1156036e-38
0.52593189 -0.26797974 0.6437993 1.1708845e-38
0.52630329 -0.26500162 0.64326406 1.1801041e-38
0.52667218 -0.26201749 0.64273256 1.1801041e-38
0.52708113 -0.25954944 0.64350897 1.1801041e-38
0.50944781 -0.25510263 0.64433026 1.0879084e-38
0.5274899 -0.25708368 0.64428747 1.1801041e-38
0.52785885 -0.25409275 0.64375794 1.1801041e-38
0.52822828 -0.2510975 0.64322758 1.1801041e-38
0.52871311 -0.24770175 0.64344138 1.1801041e-38
0.52905929 -0.24485834 0.64339995 1.1801041e-38
0.52949196 -0.24160486 0.64414573 1.1801041e-38
0.52967119 -0.23850045 0.64388931 1.1801041e-38
0.52982187 -0.23537943 0.6436739 1.1801041e-38
0.52997249 -0.23225656 0.64345837 1.1801041e-38
0.53012335 -0.22913189 0.64324272 1.1801041e-38
0.53027421 -0.22600538 0.64302695 1.1801041e-38
0.53042519 -0.22287703 0.642811 1.1801041e-38
0.53076726 -0.22082831 0.64414042 1.1801041e-38
0.53077215 -0.21833438 0.64322442 1.1801041e-38
0.53108734 -0.2170767 0.644593 1.1801041e-38
0.53087062 -0.21588022 0.64217389 1.1801041e-38
0.5312314 -0.21474388 0.64438784 1.1801041e-38
0.53157914 -0.2117019 0.64389229 1.1801041e-38
0.53197473 -0.20867704 0.64332855 1.1801041e-38
0.53237098 -0.20564753 0.64276391 1.1801041e-38
0.5328812 -0.20242573 0.64340073 1.1801041e-38
0.53354943 -0.19927138 0.6438154 1.1801041e-38
0.53399605 -0.19705501 0.64318126 1.1801041e-38
0.53429431 -0.19557516 0.64275783 1.1801041e-38
0.51575392 -0.19417602 0.64314222 9.7727382e-39
0.53491724 -0.19339018 0.64369154 1.1524455e-38
0.53567743 -0.19007248 0.64352441 5.6250783e-39
0.53627694 -0.18709971 0.64267659 2.8599577e-39
0.53674066 -0.18511705 0.6438368 2.8599577e-39
0.53717923 -0.18300261 0.64412689 2.8599577e-39
0.5376119 -0.18075846 0.64351714 2.8599577e-39
0.53827828 -0.17779437 0.64257812 2.8599577e-39
0.53910464 -0.17608035 0.64413881 2.8599577e-39
0.53980154 -0.17392525 0.64316034 2.8599577e-39
0.54046595 -0.17235532 0.64358836 2.8599577e-39
0.54138374 -0.17006969 0.64366454 2.8599577e-39
0.54235888 -0.16780221 0.64366049 2.8599577e-39
0.54304451 -0.16623488 0.64406425 2.8599577e-39
0.54408747 -0.16377926 0.64351696 2.8595975e-39
0.54529774 -0.16097677 0.64364702 3.0432657e-39
0.5485456 -0.16052346 0.64458263 3.5053467e-39
0.55199623 -0.16132392 0.64254975 3.689745e-39
0.5616498 -0.15788044 0.64314789 2.8595975e-39
0.53038538 -0.081224523 0.64286792 1.1231301e-38
0.5324108 -0.083014585 0.64270717 1.0315107e-38
0.52836716 -0.079440914 0.64302814 9.8433244e-39
0.52441823 -0.075905524 0.6432519 9.5667375e-39
0.52638268 -0.077668861 0.64314973 9.7511287e-39
0.5205096 -0.072396994 0.64345515 8.8291724e-39
0.52246052 -0.074148245 0.6433537 9.197955e-39
0.51784784 -0.069827631 0.64323759 8.8302528e-39
0.51569408 -0.067357063 0.64228773 8.8349346e-39
0.51281643 -0.063883513 0.64379185 8.8237704e-39
0.51416713 -0.065507837 0.64453745 8.82269e-39
0.50985402 -0.060595945 0.64269882 8.8273718e-39
0.511334 -0.06223838 0.64324492 8.8248508e-39
0.50798237 -0.058310434 0.6436587 8.7315748e-39
0.50608134 -0.055618882 0.64284009 8.8187286e-39
0.50479686 -0.052863847 0.64385217 8.8187286e-39
0.50308168 -0.049638491 0.64368516 8.9105641e-39
0.50094074 -0.045940131 0.64233404 8.8183684e-39
0.50158608 -0.046662457 0.64411092 8.9109242e-39
0.49966478 -0.043213386 0.64335257 8.8187286e-39
0.4976798 -0.039480872 0.64315897 8.9116445e-39
0.49852985 -0.04107897 0.6432426 8.8169279e-39
0.49736929 -0.036870193 0.64317399 8.9123647e-39
0.49980953 -0.034395587 0.64313298 8.7250924e-39
0.50100267 -0.033331245 0.64499331 8.7243721e-39
0.50253731 -0.031942416 0.64267236 8.7243721e-39
0.50415695 -0.030438244 0.64298189 8.7243721e-39
0.50576138 -0.028928701 0.64332044 8.6325366e-39
0.5073694 -0.027415846 0.64365965 8.5407011e-39
0.50898093 -0.025899664 0.64399964 7.3468397e-39
0.51059598 -0.024380144 0.6443404 5.3264588e-39
0.51223695 -0.022859301 0.64464879 6.1529782e-39
0.51390815 -0.021384006 0.64354837 7.6223462e-39
0.51558691 -0.019901883 0.64244556 7.8060172e-39
0.51730168 -0.018371873 0.64266759 5.7856363e-39
0.51988256 -0.016069075 0.64300162 6.6121557e-39
0.52335286 -0.012986597 0.64342791 6.3366492e-39
0.52683747 -0.0098879561 0.64386165 7.4386752e-39
0.52953047 -0.0075579397 0.64409065 8.6325366e-39
0.53223646 -0.0052172095 0.64431989 8.7243721e-39
0.53586119 -0.0020817919 0.64462686 8.7243721e-39
0.53859007 0.00025796797 0.64349985 8.7243721e-39
0.54041767 0.0018194001 0.64229536 8.7243721e-39
0.54215586 0.0034113601 0.64258456 8.7243721e-39
0.54388583 0.0050075781 0.64289176 8.7243721e-39
0.54561996 0.0066075958 0.64319962 8.7243721e-39
0.54735821 0.0082114292 0.6435082 8.7243721e-39
0.54997396 0.010624843 0.64397264 8.7243721e-39
0.55351841 0.013854964 0.64453578 8.7243721e-39
0.5562458 0.016286887 0.64488095 8.7243721e-39
0.55821383 0.01790436 0.64220792 8.7243721e-39
0.56004763 0.019539369 0.64243627 8.7243721e-39
0.54875731 0.022101091 0.64318961 1.0967674e-38
0.56282139 0.022000527 0.64276195 8.7243721e-39
0.56560493 0.024470471 0.64308882 8.7243721e-39
0.56745023 0.026122857 0.64333034 8.7243721e-39
0.56929797 0.027779555 0.64357561 8.7243721e-39
0.57115054 0.029440589 0.64382154 8.7243721e-39
0.57393086 0.031940702 0.64420259 8.7243721e-39
0.57677841 0.034450788 0.64450967 8.7243721e-39
0.57870561 0.036130838 0.64468658 8.7247323e-39
0.58063829 0.037815649 0.6448639 8.7250924e-39
0.582793 0.039511912 0.64476138 8.817288e-39
0.58517098 0.041221555 0.64438039 8.7243721e-39
0.58755928 0.042938672 0.64399785 8.7243721e-39
0.58995807 0.044663318 0.64361358 8.8180083e-39
0.59236747 0.046395533 0.64322758 8.8183684e-39
0.46093735 0.19461824 0.64314127 7.6565785e-39
0.4577606 0.19662023 0.64327073 6.458764e-39
0.45952475 0.19577442 0.6440779 6.458764e-39
0.45097944 0.20060267 0.64293373 6.550961e-39
0.45473936 0.19859807 0.64363796 6.2743727e-39
0.44924068 0.2027231 0.64353132 6.1821757e-39
0.44757423 0.20543063 0.64354616 6.1821757e-39
0.45711148 0.20411381 0.64347941 6.7349879e-39
0.44560981 0.20856717 0.64360946 6.1821757e-39
0.44324502 0.211909 0.64343089 6.1821757e-39
0.44073534 0.21539758 0.64210397 6.1821757e-39
0.44142467 0.21451113 0.6437422 6.1821757e-39
0.43938279 0.21739961 0.64350492 6.1821757e-39
0.43697569 0.22084098 0.64391762 6.1821757e-39
0.43817174 0.21911992 0.64372236 6.1821757e-39
0.43440786 0.22442414 0.64321208 6.1821757e-39
0.43529981 0.22313853 0.6430676 6.1821757e-39
0.43292439 0.22656055 0.64345574 6.1821757e-39
0.43088204 0.22955397 0.64374781 6.1821757e-39
0.44332141 0.22801822 0.64296514 6.1821757e-39
0.42868084 0.23359631 0.6433869 6.1821757e-39
0.42904329 0.23231609 0.64274144 6.1821757e-39
0.42874399 0.23582548 0.64327437 6.1818142e-39
0.42882827 0.23879874 0.6431244 6.1814526e-39
0.42891255 0.24177322 0.64297426 6.0896185e-39
0.42897582 0.24400482 0.64286172 6.1821757e-39
0.42940998 0.24516611 0.64493543 6.3658425e-39
0.43023002 0.24707402 0.64348084 7.0097601e-39
0.43301067 0.24997276 0.6428318 7.0997852e-39
0.5209946 -0.3289969 0.64548171 6.6388435e-39
0.51675338 -0.31649986 0.64620614 2.9521561e-39
0.51776487 -0.31348068 0.64677286 2.8599577e-39
0.51872146 -0.30998707 0.64606041 2.8599577e-39
0.5195663 -0.30763957 0.64687413 2.8599577e-39
0.52070612 -0.30375332 0.64680797 2.8599577e-39
0.52130854 -0.30112147 0.64638829 2.8599577e-39
0.52199173 -0.29883629 0.64676124 2.8599577e-39
0.52227139 -0.29742801 0.6463567 2.8599577e-39
0.52295512 -0.29513967 0.64672887 2.8599577e-39
0.52344608 -0.2924251 0.64647394 2.8599577e-39
0.52390707 -0.28904828 0.64671689 2.8599577e-39
0.52420151 -0.2860525 0.64629257 2.8599577e-39
0.52449632 -0.28305319 0.64586782 2.8599577e-39
0.52482152 -0.28011915 0.64630574 2.8599577e-39
0.52494538 -0.27775639 0.64522076 2.9517932e-39
0.52512902 -0.27743921 0.64676994 2.8599577e-39
0.52541375 -0.27501279 0.64726794 3.0439874e-39
0.52566415 -0.27198032 0.64690852 7.2842213e-39
0.52600843 -0.26899815 0.64641428 1.1432261e-38
0.52637929 -0.26602674 0.64588189 1.1708845e-38
0.52688086 -0.26282167 0.64652139 1.1801041e-38
0.52738261 -0.25961679 0.64716262 1.1801041e-38
0.52775371 -0.25663635 0.64663178 1.1801041e-38
0.52812231 -0.25364989 0.64610469 1.1801041e-38
0.52860951 -0.2502645 0.64631367 1.1801041e-38
0.528997 -0.24762158 0.64666605 1.1801041e-38
0.52943313 -0.2442061 0.6469503 1.1801041e-38
0.52975476 -0.24118245 0.646492 1.1801041e-38
0.53004324 -0.23813812 0.64608085 1.1801041e-38
0.53020322 -0.23502606 0.64585292 1.1801041e-38
0.53050631 -0.23251201 0.6467787 1.1801041e-38
0.53065687 -0.22939406 0.64656448 1.1801041e-38
0.53084588 -0.2267378 0.64674848 1.1801041e-38
0.53073072 -0.22410274 0.64510125 1.1801041e-38
0.5311107 -0.22376499 0.64727753 1.1801041e-38
0.53126764 -0.22064695 0.64705479 1.1801041e-38
0.53145015 -0.21753888 0.64679563 1.1801041e-38
0.53163517 -0.21442972 0.64653289 1.1801041e-38
0.53183526 -0.21132502 0.64624894 1.1801041e-38
0.53219283 -0.20828792 0.64574128 1.1801041e-38
0.53269696 -0.20507173 0.64638317 1.1801041e-38
0.53329349 -0.20189553 0.64689648 1.1801041e-38
0.53373885 -0.19968718 0.64626658 1.1801041e-38
0.5340361 -0.1982127 0.64584601 1.1801041e-38
0.53452134 -0.19612797 0.6460641 1.1801041e-38
0.53502697 -0.19416669 0.64715999 1.1708845e-38
0.53559911 -0.19119856 0.64635366 1.0325926e-38
0.53617263 -0.18822388 0.64554548 3.6893498e-39
0.53671062 -0.18479401 0.6475001 2.8599577e-39
0.53731346 -0.18182309 0.64665377 2.8599577e-39
0.53835917 -0.17880471 0.64654094 2.8599577e-39
0.53946596 -0.17580262 0.64634728 2.8599577e-39
0.54055727 -0.17298846 0.64662802 2.8599577e-39
0.54188347 -0.16944969 0.64658493 2.8599577e-39
0.54274476 -0.16734791 0.647192 2.8599577e-39
0.5432471 -0.16591513 0.64649451 2.8599577e-39
0.54422426 -0.16364586 0.64649183 2.8599577e-39
0.54549688 -0.16066526 0.64608335 3.2283829e-39
0.53473496 -0.08453428 0.64621538 9.7500483e-39
0.53180683 -0.082670927 0.64628923 9.0963959e-39
0.5290302 -0.080047525 0.64616776 9.0974763e-39
0.52436584 -0.075687379 0.64605576 9.0060009e-39
0.52626443 -0.077434458 0.64604676 9.0978364e-39
0.52046615 -0.072187386 0.64624888 8.7290539e-39
0.52241266 -0.073934384 0.64615244 8.9138053e-39
0.5185262 -0.070446342 0.64634496 8.729414e-39
0.51550865 -0.067132071 0.64529949 8.7297741e-39
0.51685172 -0.068758041 0.64606225 8.7283336e-39
0.51254797 -0.063652381 0.64692318 8.7258127e-39
0.51385033 -0.065264411 0.64773381 8.7247323e-39
0.50989246 -0.060423747 0.64538467 8.7283336e-39
0.51122606 -0.062038332 0.64614385 8.7268931e-39
0.50814986 -0.058569059 0.64797151 8.7243721e-39
0.51943696 -0.059119407 0.64727396 8.8219698e-39
0.50659621 -0.056229271 0.64618492 8.7243721e-39
0.49729559 -0.040005036 0.64786744 1.022147e-38
0.49736658 -0.037754111 0.64638889 9.5620557e-39
0.49886212 -0.036254749 0.64686131 9.0917141e-39
0.50036049 -0.034752671 0.64733469 8.9998786e-39
0.50138116 -0.033253554 0.64716417 8.9998786e-39
0.50274074 -0.031788595 0.64648563 8.8162076e-39
0.50419444 -0.030328125 0.64567256 8.7243721e-39
0.5057956 -0.028821636 0.64601326 8.5407011e-39
0.50740027 -0.027311847 0.64635479 8.0815237e-39
0.50900835 -0.025798742 0.64669704 6.0611427e-39
0.51062006 -0.024282318 0.64704007 4.9591168e-39
0.51230329 -0.022768684 0.64728361 7.6223462e-39
0.51400262 -0.021252338 0.64751023 7.4386752e-39
0.51569963 -0.019776437 0.64638329 6.0611427e-39
0.51745641 -0.018254623 0.646541 5.6019653e-39
0.52012265 -0.015965179 0.64674747 7.4386752e-39
0.52359259 -0.012928592 0.64581043 5.4182943e-39
0.5270173 -0.0098316465 0.64632785 8.2651947e-39
0.52955717 -0.0074970387 0.64677352 8.7243721e-39
0.53210711 -0.0051531922 0.64722097 8.7243721e-39
0.53567171 -0.0020225625 0.64760739 8.7243721e-39
0.53831059 0.00033772923 0.64796352 8.7243721e-39
0.54022622 0.0018689167 0.64528382 8.7243721e-39
0.54196012 0.0034570172 0.64557564 8.7243721e-39
0.54369813 0.0050489623 0.64586818 8.7243721e-39
0.54544044 0.0066447649 0.6461615 8.7243721e-39
0.54718685 0.008244439 0.64645553 8.7243721e-39
0.54893756 0.0098479986 0.64675021 8.7243721e-39
0.55069923 0.011455326 0.64703649 8.7243721e-39
0.55339253 0.013873632 0.64741009 8.7243721e-39
0.55703962 0.017111478 0.6478554 8.7243721e-39
0.55807912 0.017913777 0.64510012 8.7243721e-39
0.55991721 0.019544994 0.64531988 8.7243721e-39
0.56268436 0.022000525 0.64565063 8.7243721e-39
0.56545711 0.024464782 0.64598805 8.7243721e-39
0.56729561 0.026113333 0.64623594 8.7243721e-39
0.56913602 0.027766157 0.64648819 8.7243721e-39
0.57096267 0.029423032 0.64676559 8.7243721e-39
0.57279402 0.031084113 0.6470437 8.7243721e-39
0.5746299 0.032749411 0.64732254 8.7243721e-39
0.57649124 0.034419406 0.64757502 8.7243721e-39
0.57249606 0.036252566 0.64664012 6.9924303e-39
0.57841319 0.036095172 0.6477558 8.7243721e-39
0.58034056 0.037775673 0.647937 8.7243721e-39
0.46259081 0.1944634 0.64600635 7.748414e-39
0.45745987 0.19741483 0.6461035 6.1821771e-39
0.46035081 0.19569661 0.64550787 6.2743727e-39
0.45220926 0.20027338 0.64647555 6.1821757e-39
0.45419103 0.19917077 0.64595449 6.1821757e-39
0.44959378 0.20280339 0.64667851 6.1821757e-39
0.45045936 0.20146313 0.64661849 6.1821757e-39
0.44678557 0.2069338 0.64582634 6.1821757e-39
0.44812548 0.20510718 0.64705932 6.1821757e-39
0.44555593 0.2088479 0.64651537 6.1821757e-39
0.44357449 0.21160737 0.64568484 6.1821757e-39
0.44428754 0.21073693 0.64727497 6.1821757e-39
0.44069129 0.21593904 0.64782333 6.1821757e-39
0.44201127 0.21392345 0.64649069 6.1821757e-39
0.43950108 0.21748202 0.6461255 6.1821757e-39
0.43728366 0.22068004 0.64667881 6.1821757e-39
0.43487221 0.22392336 0.64664704 6.1821757e-39
0.43581876 0.22266772 0.64640558 6.1821757e-39
0.43197745 0.22788817 0.64606929 6.1821757e-39
0.43337032 0.22588137 0.64645076 6.1821757e-39
0.43071485 0.22970496 0.64687914 6.1821757e-39
0.42883527 0.23316577 0.64595497 6.1821757e-39
0.42952412 0.23180117 0.64615077 6.1821757e-39
0.42812055 0.2349889 0.64722264 6.1821757e-39
0.42812294 0.24155533 0.64721841 6.3662068e-39
0.42876548 0.24335793 0.64607871 6.3665656e-39
0.42989415 0.24416012 0.64691323 6.2732839e-39
0.43126798 0.24682492 0.64590335 6.5480589e-39
0.43232203 0.2485908 0.64546287 6.7310012e-39
0.43384594 0.2503432 0.64561671 6.6388042e-39
0.43570739 0.25228265 0.64518833 7.9291829e-39
0.51694465 -0.32535714 0.64864933 1.8450603e-39
0.51587933 -0.32304794 0.65020156 2.9521575e-39
0.5160237 -0.32157493 0.64999115 3.4131469e-39
0.51686567 -0.31942436 0.65012127 3.3209498e-39
0.51734602 -0.31660151 0.64942217 3.1365516e-39
0.51815915 -0.31363586 0.64959776 3.0443531e-39
0.51914537 -0.31278986 0.65087777 3.5975437e-39
0.5186646 -0.31160724 0.64886403 2.8599577e-39
0.51924801 -0.31046763 0.64982581 3.136553e-39
0.51995772 -0.30780602 0.64970291 2.9521561e-39
0.52088141 -0.30489957 0.64972234 3.0443531e-39
0.52176148 -0.3019594 0.64980841 2.8599577e-39
0.52265036 -0.29839969 0.64920497 2.8599577e-39
0.52339798 -0.2959882 0.65016174 2.8599577e-39
0.52369148 -0.29300585 0.64974046 2.8599577e-39
0.52398503 -0.29001999 0.64931899 2.8599577e-39
0.524279 -0.28703061 0.64889693 2.8599577e-39
0.52468514 -0.28378096 0.64966762 2.8599577e-39
0.52479422 -0.28179103 0.64815736 2.8599577e-39
0.52509123 -0.28053257 0.65043986 2.8599577e-39
0.52538586 -0.27753758 0.65001857 2.8599577e-39
0.52568078 -0.27453914 0.64959669 3.0439874e-39
0.52594244 -0.2715179 0.64922249 5.625437e-39
0.52638727 -0.26812866 0.64948797 1.1340067e-38
0.52677011 -0.26533294 0.64939213 1.1801041e-38
0.52727067 -0.26213527 0.65003157 1.1708845e-38
0.52764189 -0.25916412 0.64950275 1.1708845e-38
0.52792048 -0.25693303 0.64910573 1.1801041e-38
0.52810645 -0.25544423 0.64884079 1.1801041e-38
0.52851403 -0.2529875 0.64961237 1.1708845e-38
0.52889693 -0.25018081 0.64951879 1.1708845e-38
0.52936047 -0.24678843 0.64976239 1.1801041e-38
0.52968132 -0.24377318 0.64930689 1.1801041e-38
0.52992219 -0.24150939 0.64896488 1.1801041e-38
0.53027231 -0.23885019 0.64936882 1.1708845e-38
0.53060347 -0.23600614 0.64934993 1.1708845e-38
0.53097296 -0.23353128 0.65017879 1.1801041e-38
0.53107566 -0.2319897 0.65003353 1.1801041e-38
0.53118849 -0.22965606 0.64987391 1.1801041e-38
0.53133905 -0.22654301 0.64966094 1.1801041e-38
0.53149343 -0.22342989 0.64944267 1.1801041e-38
0.53167331 -0.22032684 0.64918816 1.1801041e-38
0.53200918 -0.21686083 0.64961356 1.1801041e-38
0.53224647 -0.21396363 0.64972836 1.1801041e-38
0.53234839 -0.21116795 0.64913422 1.1801041e-38
0.53258276 -0.20853256 0.64925349 1.1801041e-38
0.53291267 -0.20604578 0.65013951 1.1801041e-38
0.5333178 -0.20303208 0.64956856 1.1801041e-38
0.53374398 -0.2008214 0.64896798 1.1801041e-38
0.53402859 -0.19934547 0.64856696 1.1801041e-38
0.53438735 -0.19705997 0.64986199 1.1801041e-38
0.53499401 -0.19370027 0.64991033 1.1616651e-38
0.5355649 -0.19073802 0.64910877 9.5887281e-39
0.53617305 -0.18737124 0.64915466 3.1361816e-39
0.53672928 -0.18436909 0.65017551 2.8599577e-39
0.53781492 -0.18118392 0.64955622 2.8599577e-39
0.53890121 -0.17838363 0.64983881 2.8599577e-39
0.53959465 -0.17624143 0.64887238 2.8599577e-39
0.54023761 -0.17467228 0.64932525 2.8599577e-39
0.54111338 -0.17238498 0.64945728 2.8599577e-39
0.54220468 -0.16957138 0.64973992 2.8599577e-39
0.54353142 -0.16603243 0.6497004 2.8599577e-39
0.5444302 -0.16353692 0.64935708 2.8599577e-39
0.54540205 -0.16106093 0.64891565 2.8599577e-39
0.53611767 -0.084370717 0.6496827 9.8436845e-39
0.53253806 -0.082488701 0.64931715 9.0917141e-39
0.52694809 -0.078733176 0.65049136 8.8162076e-39
0.52932358 -0.080577627 0.64981472 8.9998786e-39
0.52328897 -0.075274073 0.65031826 8.7243721e-39
0.52511585 -0.07700108 0.65040469 8.7243721e-39
0.52146745 -0.073552132 0.65023208 8.7243721e-39
0.51797795 -0.07014855 0.64986086 8.7243721e-39
0.51965123 -0.071835227 0.65014619 8.7243721e-39
0.51515394 -0.066877939 0.64854527 8.7243721e-39
0.51651478 -0.068503089 0.64927566 8.7243721e-39
0.51204777 -0.063382439 0.65037984 8.7243721e-39
0.50945526 -0.060173236 0.64876258 8.7243721e-39
0.51075095 -0.0617771 0.64957082 8.7243721e-39
0.52977264 -0.05978258 0.64824259 7.6223462e-39
0.50561535 -0.055904783 0.65037578 8.7243721e-39
0.50363255 -0.053507246 0.64924818 8.7243721e-39
0.50114048 -0.050181098 0.65025687 8.9105641e-39
0.4998526 -0.047043815 0.64946723 8.9109242e-39
0.4971993 -0.042176798 0.65074533 1.050418e-38
0.49856591 -0.043909498 0.64867848 9.4734615e-39
0.49773312 -0.040699705 0.64993799 1.0782927e-38
0.49874672 -0.039213076 0.64977062 9.4684196e-39
0.49989694 -0.037351776 0.64940017 9.0917141e-39
0.50125945 -0.03622482 0.65007824 9.0917141e-39
0.50255066 -0.033982903 0.64950442 9.0917141e-39
0.50384575 -0.031734787 0.6489293 9.1835496e-39
0.50521588 -0.030599423 0.64960909 8.9998786e-39
0.50638092 -0.028717028 0.64923674 8.8162076e-39
0.50790262 -0.027202221 0.64969999 5.3264588e-39
0.50903577 -0.025698248 0.64938307 3.0305714e-39
0.51068586 -0.024188798 0.64966673 7.1631687e-39
0.51247025 -0.022687498 0.64975965 7.8060172e-39
0.51425982 -0.021181855 0.64985287 5.9693073e-39
0.51695448 -0.018914662 0.64999318 6.6121557e-39
0.52056485 -0.015877098 0.65018123 6.1529782e-39
0.52398252 -0.012844253 0.64932233 6.8876622e-39
0.52651572 -0.010527091 0.64975524 8.5407011e-39
0.52808946 -0.009002788 0.64886498 8.7243721e-39
0.52978146 -0.0074477009 0.64916468 8.7243721e-39
0.53232753 -0.0051076943 0.64961565 8.7243721e-39
0.53565753 -0.0019718232 0.65032876 8.7243721e-39
0.53818744 0.00038799644 0.65083361 8.7243721e-39
0.54003578 0.0019181892 0.64825761 8.7243721e-39
0.54176885 0.0035023279 0.64854717 8.7243721e-39
0.54352319 0.0050897691 0.6488139 8.7243721e-39
0.54528189 0.0066811731 0.64908129 8.7243721e-39
0.54704493 0.0082765529 0.64934933 8.7243721e-39
0.54881239 0.0098759253 0.64961809 8.7243721e-39
0.55058438 0.011479304 0.64988756 8.7243721e-39
0.55328554 0.013891932 0.6502465 8.7243721e-39
0.5569241 0.017122515 0.65069818 8.7243721e-39
0.55978751 0.019550595 0.64819032 8.7243721e-39
0.56254798 0.022000521 0.64852601 8.7243721e-39
0.56530482 0.024459096 0.6488809 8.7243721e-39
0.56711763 0.026103675 0.64915991 8.7243721e-39
0.56893516 0.027752409 0.64943969 8.7243721e-39
0.57075715 0.029405311 0.64972013 8.7243721e-39
0.57258379 0.031062396 0.65000129 8.7243721e-39
0.57441509 0.032723684 0.65028328 8.7243721e-39
0.57625103 0.034389187 0.65056586 8.7243721e-39
0.5781222 0.036059689 0.65080959 8.7243721e-39
0.58004433 0.037735902 0.65099466 8.7243721e-39
0.58324254 0.040305939 0.64820993 8.7243721e-39
0.58615547 0.042845763 0.64848381 8.7243721e-39
0.58811152 0.044545658 0.64865857 8.7243721e-39
0.59008479 0.046250917 0.64881891 8.7243721e-39
0.46321702 0.1939159 0.65053397 9.1291764e-39
0.45337275 0.19917598 0.65010798 6.1821757e-39
0.44933015 0.20375668 0.64991552 6.1821757e-39
0.45050457 0.20198484 0.64980024 6.1821757e-39
0.44789302 0.20580088 0.64954829 6.1821757e-39
0.44585595 0.20871384 0.64927197 6.1821757e-39
0.44375089 0.21175657 0.64958924 6.1821757e-39
0.44465214 0.21045426 0.64945388 6.1821757e-39
0.44194961 0.21435107 0.64986897 6.1821757e-39
0.4393715 0.21794222 0.64915895 6.1821757e-39
0.43723392 0.22092015 0.64957571 6.1821757e-39
0.43818057 0.21966036 0.64934343 6.1821757e-39
0.43439347 0.2246768 0.65029609 6.1821757e-39
0.43573666 0.22288477 0.64936537 6.1821757e-39
0.43301433 0.22643983 0.64918911 6.1821757e-39
0.431054 0.22953761 0.64957398 6.1821757e-39
0.42968521 0.23226774 0.6491645 6.1821757e-39
0.42809445 0.23568346 0.64938831 6.1821757e-39
0.42739502 0.23856823 0.64945012 6.3662068e-39
0.43246764 0.2490492 0.65084684 6.269663e-39
0.43502134 0.25136033 0.64920372 6.8228353e-39
0.43727666 0.25296664 0.65090418 8.0213799e-39
0.51791102 -0.32532889 0.65266299 2.7674019e-39
0.519108 -0.3246296 0.65363181 3.5975437e-39
0.5176385 -0.32236588 0.65170681 3.5053481e-39
0.51932597 -0.3224203 0.65331769 3.5975437e-39
0.51849115 -0.31943578 0.65182394 3.5975437e-39
0.52001655 -0.31923792 0.65322191 3.5975437e-39
0.51878178 -0.31648415 0.65140373 3.5975437e-39
0.52047151 -0.31653774 0.65301657 3.5975437e-39
0.51899987 -0.31426829 0.65108824 3.5975437e-39
0.5207634 -0.31358224 0.65259671 3.5975437e-39
0.5210557 -0.31062335 0.65217638 3.5975437e-39
0.52134824 -0.307661 0.65175551 3.5975437e-39
0.52220589 -0.30471253 0.65187311 3.5975437e-39
0.52249956 -0.30174318 0.65145159 3.5053453e-39
0.52294225 -0.29867473 0.65261471 2.9521561e-39
0.52370906 -0.29550928 0.65241683 2.8599577e-39
0.52397394 -0.29251367 0.65203798 2.8599577e-39
0.52442986 -0.28930241 0.65273333 2.8599577e-39
0.52469659 -0.28630334 0.65235257 2.8599577e-39
0.52515149 -0.28309077 0.65305156 2.8599577e-39
0.52541727 -0.28008655 0.65267277 2.8599577e-39
0.52568334 -0.27707916 0.65229356 3.0439874e-39
0.52594972 -0.27406865 0.65191406 5.9938552e-39
0.52634329 -0.27160954 0.65269989 1.0694704e-38
0.5266431 -0.26904017 0.65272254 1.1616651e-38
0.52703762 -0.26615724 0.65306014 1.1708845e-38
0.52738774 -0.26318553 0.65256304 1.1708845e-38
0.52774191 -0.26021171 0.65206027 1.1616648e-38
0.52826214 -0.25703013 0.65266782 1.069397e-38
0.52864319 -0.25423184 0.65257674 1.050958e-38
0.52913797 -0.25086632 0.65277427 9.6790964e-39
0.52947623 -0.24787095 0.65229577 9.4947037e-39
0.52977407 -0.24485035 0.65187454 1.023263e-38
0.53023416 -0.24163222 0.65256935 9.1255611e-39
0.53056151 -0.23879521 0.65255588 8.6638599e-39
0.53859276 -0.23975256 0.65323335 3.0443545e-39
0.53090125 -0.23613657 0.65297407 7.8326559e-39
0.5310576 -0.23462577 0.65275377 8.2943557e-39
0.53129876 -0.23236096 0.6524139 9.5861791e-39
0.53156662 -0.22931181 0.65203643 1.1062754e-38
0.53186059 -0.22583361 0.65251851 1.0232629e-38
0.53200763 -0.22325228 0.65231144 1.0601413e-38
0.53222072 -0.22061574 0.65245968 1.0785805e-38
0.53242916 -0.21797736 0.65261501 1.1339701e-38
0.53270745 -0.21502252 0.6531207 1.1524452e-38
0.53288078 -0.21191928 0.65287739 1.1708844e-38
0.53305417 -0.20881397 0.65263391 1.1708845e-38
0.53322768 -0.20570657 0.65239024 1.1801041e-38
0.53347069 -0.20262706 0.65204912 1.1801041e-38
0.53386998 -0.19961135 0.65148842 1.1801041e-38
0.53410208 -0.19924714 0.65385056 1.1801041e-38
0.53446436 -0.19621591 0.6533438 1.1708845e-38
0.53496116 -0.19323586 0.65264881 1.0694704e-38
0.53553087 -0.1902795 0.65185189 5.7172725e-39
0.53608555 -0.18728526 0.65286756 2.9517932e-39
0.53683144 -0.18477765 0.65272349 2.8599577e-39
0.53728998 -0.1833612 0.65208441 2.8599577e-39
0.5381431 -0.18127966 0.65268701 2.8599577e-39
0.53926122 -0.17810395 0.65202922 2.8599577e-39
0.53995413 -0.17596437 0.65106702 2.8599577e-39
0.54051054 -0.17496151 0.65298176 2.8599577e-39
0.54157108 -0.17174892 0.65240872 2.8599577e-39
0.5425812 -0.16891056 0.65280366 2.8599577e-39
0.54339361 -0.16679481 0.65168393 2.8599577e-39
0.54438394 -0.1635434 0.65300369 2.8599577e-39
0.54564267 -0.16076514 0.6512751 3.0443531e-39
0.54719609 -0.15992737 0.65317059 2.8599591e-39
0.53715205 -0.084248364 0.65227658 9.4731013e-39
0.53357375 -0.082368836 0.65190446 9.0917141e-39
0.52716529 -0.078563489 0.65287888 9.0917141e-39
0.53035957 -0.080460347 0.65239286 8.9998786e-39
0.51764035 -0.069890544 0.65305448 8.7243721e-39
0.51910138 -0.07153374 0.6536414 8.7243721e-39
0.51472503 -0.066611752 0.65188348 8.7243721e-39
0.51618153 -0.068249881 0.65246856 8.7243721e-39
0.51155072 -0.063114189 0.65381479 8.7243721e-39
0.51334584 -0.064989261 0.65118951 8.7243721e-39
0.51025349 -0.061513223 0.65301365 8.7243721e-39
0.50826371 -0.059107173 0.65188193 8.7243721e-39
0.50441778 -0.05485411 0.6535114 8.7243721e-39
0.50244325 -0.052466258 0.65238535 8.7243721e-39
0.49708843 -0.045107484 0.65363216 1.0594936e-38
0.49762082 -0.043637201 0.65282989 1.1064197e-38
0.49863189 -0.042157099 0.65266585 1.0506342e-38
0.49950543 -0.040185045 0.65180582 9.6553332e-39
0.50113827 -0.039181698 0.6529783 9.0016793e-39
0.50220478 -0.036686093 0.65228844 8.9998786e-39
0.50371796 -0.034711819 0.65184116 8.8162076e-39
0.50426674 -0.033160299 0.65237951 8.6325366e-39
0.50585222 -0.030886743 0.65273726 6.9794977e-39
0.50773239 -0.027858211 0.65266597 5.0509523e-39
0.50933862 -0.02562473 0.65165168 6.4284847e-39
0.51076949 -0.024097338 0.65225625 8.1733592e-39
0.51262134 -0.022605237 0.65224898 6.8876622e-39
0.51447904 -0.0211084 0.65224183 4.9591168e-39
0.51724792 -0.018851275 0.65227365 7.4386752e-39
0.52086008 -0.015818741 0.65245855 5.5101298e-39
0.52350396 -0.013527788 0.65271008 8.0815237e-39
0.52596641 -0.011213988 0.6532377 8.7243721e-39
0.52887756 -0.008411794 0.65224528 8.7243721e-39
0.53236043 -0.0050526764 0.65226495 8.7243721e-39
0.53554368 -0.0019164896 0.65317822 8.7243721e-39
0.53928971 0.0014699021 0.65288419 8.7243721e-39
