# .PCD v0.7 - Point Cloud Data file format
VERSION 0.7
FIELDS x y z rgb
SIZE 4 4 4 4
TYPE F F F F
COUNT 1 1 1 1
WIDTH 1024
HEIGHT 1
VIEWPOINT 0 0 0 1 0 0 0
POINTS 1024
DATA ascii
0.69424355 0.1818991 0.61000091 1.0786889e-38
0.69795352 0.18139175 0.61000091 1.0786889e-38
0.70043844 0.1816746 0.61000097 1.0786889e-38
0.70293224 0.18102303 0.61000097 1.0786889e-38
0.70669073 0.18144834 0.61000103 1.0786889e-38
0.7104671 0.18187569 0.61000103 1.0786889e-38
0.71299666 0.18121982 0.61000103 1.0786889e-38
0.7155354 0.18150541 0.61000109 1.0786889e-38
0.7180832 0.18179204 0.61000109 1.0786889e-38
0.72064012 0.18113247 0.61000109 1.0786889e-38
0.7244941 0.18156347 0.61000109 1.0786889e-38
0.72836661 0.18199652 0.61000115 1.0786889e-38
0.73096079 0.18133253 0.61000121 1.0786889e-38
0.73356438 0.18162197 0.61000121 1.0786889e-38
0.73617744 0.18191244 0.61000121 1.0786889e-38
0.73880005 0.18124467 0.61000127 1.0786889e-38
0.74143225 0.18153554 0.61000127 1.0786889e-38
0.74495792 0.1816036 0.61000127 1.0786889e-38
0.74938679 0.18144816 0.61000127 1.0786889e-38
0.75205785 0.18174152 0.61000133 1.0786889e-38
0.75473875 0.18106607 0.61000133 1.0786889e-38
0.75742948 0.1813598 0.61000139 1.0786889e-38
0.76013029 0.18165465 0.61000139 1.0786889e-38
0.76284099 0.18195057 0.61000139 1.0786889e-38
0.76556182 0.18127048 0.61000139 1.0786889e-38
0.76829273 0.18156679 0.61000144 1.0786889e-38
0.77286816 0.18140817 0.61000144 1.0786889e-38
0.7765469 0.18147795 0.6100015 1.0786889e-38
0.77931887 0.18177688 0.6100015 1.0786889e-38
0.78210127 0.18108879 0.61000156 1.0786889e-38
0.78489417 0.18138811 0.61000156 1.0786889e-38
0.78769761 0.18168855 0.61000162 1.0786889e-38
0.79051161 0.1809964 0.61000156 1.0786889e-38
0.79333627 0.18129724 0.61000162 1.0786889e-38
0.79617161 0.18159923 0.61000162 1.0786889e-38
0.79901773 0.18190235 0.61000168 1.0786889e-38
0.80187476 0.18120536 0.61000162 1.0786889e-38
0.80474257 0.18150888 0.61000168 1.0786889e-38
0.80762142 0.18181358 0.61000168 1.0786889e-38
0.81051123 0.18111239 0.61000168 1.0786889e-38
0.81341213 0.1814175 0.61000174 1.0786889e-38
0.81632423 0.18172377 0.61000174 1.0786889e-38
0.81924748 0.18101835 0.6100018 1.0786889e-38
0.822182 0.18132505 0.61000186 1.0786889e-38
0.82512784 0.18163291 0.61000186 1.0786889e-38
0.82808524 0.18194199 0.6100018 1.0786889e-38
0.83105397 0.18123151 0.61000192 1.0786889e-38
0.83403426 0.18154101 0.61000186 1.0786889e-38
0.83702624 0.1818517 0.61000192 1.0786889e-38
0.84002978 0.18113691 0.61000198 1.0786889e-38
0.84304512 0.18144803 0.61000192 1.0786889e-38
0.84607232 0.18176036 0.61000198 1.0786889e-38
0.84911132 0.18104118 0.61000198 1.0786889e-38
0.85216224 0.18135394 0.61000204 1.0786889e-38
0.85522532 0.18166794 0.61000204 1.0786889e-38
0.85830045 0.18094432 0.61000204 1.0786889e-38
0.86138773 0.18125874 0.6100021 1.0786889e-38
0.86448717 0.1815744 0.61000216 1.0786889e-38
0.86759907 0.18189134 0.61000216 1.0786889e-38
0.33162951 0.18443145 0.60999846 9.7727368e-39
0.33502102 0.18496425 0.60999846 1.0694693e-38
0.33761406 0.18440224 0.60999846 1.0694693e-38
0.34049517 0.18443587 0.60999846 1.0694693e-38
0.34325394 0.18486559 0.60999852 1.0694693e-38
0.34588832 0.18429884 0.60999858 1.0694693e-38
0.34951568 0.1844406 0.60999864 1.0694693e-38
0.3530257 0.18498269 0.60999858 1.0694693e-38
0.35585129 0.18401022 0.6099987 1.0694693e-38
0.35869205 0.18444514 0.6099987 1.0694693e-38
0.36154813 0.18488242 0.60999864 1.0694693e-38
0.36427563 0.18430576 0.6099987 1.0694693e-38
0.36730659 0.18434002 0.6099987 1.0694693e-38
0.37020922 0.18478054 0.6099987 1.0694693e-38
0.37312773 0.18450712 0.60999876 1.0694693e-38
0.37606212 0.18423316 0.60999876 1.0694693e-38
0.37901253 0.184677 0.60999876 1.0694693e-38
0.38212791 0.18471232 0.60999882 1.0694693e-38
0.38496214 0.18412453 0.60999882 1.0694693e-38
0.3879616 0.18457174 0.60999882 1.0694693e-38
0.39097762 0.18502146 0.60999888 1.0694693e-38
0.39401034 0.1840141 0.60999894 1.0694693e-38
0.39705998 0.18446475 0.60999894 1.0694693e-38
0.40012661 0.18491793 0.60999894 1.0694693e-38
0.40305573 0.18432041 0.60999894 1.0694693e-38
0.40631148 0.18435594 0.60999894 1.0694693e-38
0.40943003 0.18481264 0.60999894 1.0694693e-38
0.41256616 0.18452923 0.609999 1.0694693e-38
0.41572002 0.18424529 0.60999906 1.0694693e-38
0.41889179 0.18470556 0.60999906 1.0694693e-38
0.42208159 0.18441942 0.60999906 1.0694693e-38
0.42448533 0.18401708 0.60999918 1.0694693e-38
0.42690045 0.18436435 0.60999906 1.0694693e-38
0.43013608 0.18482956 0.60999912 1.0694693e-38
0.43339029 0.18454091 0.60999918 1.0694693e-38
0.43666327 0.18425168 0.60999918 1.0786889e-38
0.43995512 0.18472061 0.60999918 1.0786889e-38
0.44243598 0.185074 0.60999924 1.0786889e-38
0.44492877 0.18390173 0.60999924 1.0786889e-38
0.44826868 0.18437305 0.60999924 1.0786889e-38
0.45162809 0.18484713 0.6099993 1.0786889e-38
0.45500714 0.18455303 0.6099993 1.0786889e-38
0.45755389 0.18413919 0.6099993 1.0786889e-38
0.46011305 0.18449694 0.60999936 1.0786889e-38
0.4635421 0.18497628 0.6099993 1.0786889e-38
0.46699139 0.1839017 0.6099993 1.0786889e-38
0.46959114 0.18426165 0.60999942 1.0786889e-38
0.47220379 0.18462341 0.60999942 1.0786889e-38
0.47541204 0.18480603 0.60999942 1.0786889e-38
0.47834337 0.18390161 0.60999948 1.0786889e-38
0.48099518 0.18426523 0.60999948 1.0786889e-38
0.48454872 0.18475252 0.60999948 1.0786889e-38
0.4872272 0.18511981 0.60999954 1.0786889e-38
0.49021888 0.18420672 0.60999954 1.0786889e-38
0.49352664 0.18439154 0.60999954 1.0786889e-38
0.49624586 0.18476081 0.60999954 1.0786889e-38
0.49867451 0.18482383 0.6099996 1.0786889e-38
0.50264132 0.18402505 0.60999966 1.0786889e-38
0.50540221 0.1843963 0.60999954 1.0786889e-38
0.50817716 0.18476942 0.60999966 1.0786889e-38
0.51158524 0.18495806 0.60999966 1.0786889e-38
0.51469958 0.18402618 0.60999972 1.0786889e-38
0.51751745 0.18440135 0.60999966 1.0786889e-38
0.520347 0.18477803 0.60999972 1.0786889e-38
0.52287447 0.18484239 0.60999972 1.0786889e-38
0.52700305 0.18402752 0.60999978 1.0786889e-38
0.52987677 0.18440628 0.60999984 1.0786889e-38
0.53276551 0.18478703 0.60999984 1.0786889e-38
0.53566629 0.18516934 0.60999984 1.0786889e-38
0.53890699 0.18421911 0.6099999 1.0786889e-38
0.54151046 0.18428366 0.60999984 1.0786889e-38
0.54445398 0.18466771 0.6099999 1.0786889e-38
0.54741001 0.18505336 0.60999995 1.0786889e-38
0.55071259 0.18409377 0.6099999 1.0786889e-38
0.55336589 0.18415868 0.61000001 1.0786889e-38
0.55636597 0.1845461 0.61000001 1.0786889e-38
0.5593788 0.18493517 0.61000001 1.0786889e-38
0.56240767 0.18448444 0.61000001 1.0786889e-38
0.56544948 0.18403131 0.61000007 1.0786889e-38
0.56850761 0.18442217 0.61000001 1.0786889e-38
0.57157892 0.18481469 0.61000007 1.0786889e-38
0.57432294 0.18488181 0.61000013 1.0786889e-38
0.57776797 0.18390146 0.61000013 1.0786889e-38
0.58088589 0.1842958 0.61000013 1.0786889e-38
0.5840174 0.18469185 0.61000019 1.0786889e-38
0.58611411 0.18495703 0.61000019 1.0786889e-38
0.58927286 0.18449678 0.61000019 1.0786889e-38
0.59244543 0.18403402 0.61000025 1.0786889e-38
0.59563541 0.18443324 0.61000025 1.0786889e-38
0.5988394 0.18483418 0.61000025 1.0786889e-38
0.60098475 0.18510267 0.61000031 1.0786889e-38
0.60457689 0.18410195 0.61000031 1.0786889e-38
0.60746348 0.18416968 0.61000037 1.0786889e-38
0.61072797 0.18457386 0.61000037 1.0786889e-38
0.61400694 0.18497984 0.61000037 1.0786889e-38
0.61620265 0.184374 0.61000037 1.0786889e-38
0.61987931 0.18423969 0.61000043 1.0786889e-38
0.62283403 0.18430853 0.61000043 1.0786889e-38
0.62505931 0.18458107 0.61000043 1.0786889e-38
0.62803882 0.1846505 0.61000043 1.0786889e-38
0.63178021 0.18451619 0.61000049 1.0786889e-38
0.63403565 0.18390137 0.61000049 1.0786889e-38
0.63743412 0.1843131 0.61000055 1.0786889e-38
0.64084798 0.18472669 0.61000055 1.0786889e-38
0.64313424 0.18500367 0.61000055 1.0786889e-38
0.64657927 0.18452312 0.61000055 1.0786889e-38
0.65003991 0.18403985 0.61000067 1.0786889e-38
0.65235758 0.18431756 0.61000067 1.0786889e-38
0.65468317 0.18459621 0.61000061 1.0786889e-38
0.6577974 0.18466718 0.61000067 1.0786889e-38
0.66170824 0.18452995 0.61000073 1.0786889e-38
0.66406614 0.18481089 0.61000073 1.0786889e-38
0.66761929 0.18432233 0.61000073 1.0786889e-38
0.67118895 0.1847453 0.61000073 1.0786889e-38
0.67357969 0.18502858 0.61000073 1.0786889e-38
0.67597884 0.18439534 0.61000085 1.0786889e-38
0.67999697 0.18425499 0.61000085 1.0786889e-38
0.68322664 0.18432698 0.61000085 1.0786889e-38
0.68565959 0.18461202 0.61000091 1.0786889e-38
0.68810105 0.18489805 0.61000091 1.0786889e-38
0.69055122 0.18425791 0.61000091 1.0786889e-38
0.69424355 0.18468803 0.61000091 1.0786889e-38
0.69795352 0.1841881 0.61000091 1.0786889e-38
0.70043844 0.18447591 0.61000097 1.0786889e-38
0.70293224 0.18476474 0.61000097 1.0786889e-38
0.70627207 0.18483865 0.61000103 1.0786889e-38
0.7104671 0.18469703 0.61000103 1.0786889e-38
0.71299666 0.18404621 0.61000103 1.0786889e-38
0.7155354 0.18433687 0.61000109 1.0786889e-38
0.7180832 0.18462858 0.61000109 1.0786889e-38
0.72064012 0.18492132 0.61000109 1.0786889e-38
0.7244941 0.18441279 0.61000109 1.0786889e-38
0.72836661 0.1848536 0.61000115 1.0786889e-38
0.73096079 0.1841948 0.61000121 1.0786889e-38
0.73356438 0.18448943 0.61000121 1.0786889e-38
0.73617744 0.18478513 0.61000121 1.0786889e-38
0.73880005 0.18412259 0.61000127 1.0786889e-38
0.74143225 0.18441871 0.61000127 1.0786889e-38
0.74584174 0.18427171 0.61000127 1.0786889e-38
0.74938679 0.18434721 0.61000127 1.0786889e-38
0.75205785 0.18464592 0.61000133 1.0786889e-38
0.75473875 0.18494573 0.61000133 1.0786889e-38
0.75742948 0.18427493 0.61000139 1.0786889e-38
0.76013029 0.18457516 0.61000139 1.0786889e-38
0.76252258 0.18518497 0.60963809 1.0786889e-38
0.76556182 0.18420184 0.61000139 1.0786889e-38
0.76829273 0.18450361 0.61000144 1.0786889e-38
0.77195096 0.18458031 0.61000144 1.0786889e-38
0.7765469 0.18443124 0.6100015 1.0786889e-38
0.77931887 0.1847357 0.6100015 1.0786889e-38
0.78210127 0.18405318 0.61000156 1.0786889e-38
0.78489417 0.18435808 0.61000156 1.0786889e-38
0.78769761 0.18466412 0.61000162 1.0786889e-38
0.79051161 0.18497132 0.61000156 1.0786889e-38
0.79333627 0.18428408 0.61000162 1.0786889e-38
0.79617161 0.18459171 0.61000162 1.0786889e-38
0.79901773 0.18490052 0.61000168 1.0786889e-38
0.80187476 0.18420923 0.61000162 1.0786889e-38
0.80474257 0.18451849 0.61000168 1.0786889e-38
0.80762142 0.18482894 0.61000168 1.0786889e-38
0.81051123 0.18413351 0.61000168 1.0786889e-38
0.81341213 0.18444441 0.61000174 1.0786889e-38
0.81632423 0.1847565 0.61000174 1.0786889e-38
0.81924748 0.18405694 0.6100018 1.0786889e-38
0.822182 0.18436947 0.61000186 1.0786889e-38
0.82512784 0.18468323 0.61000186 1.0786889e-38
0.82808524 0.18397947 0.6100018 1.0786889e-38
0.83105397 0.18429367 0.61000192 1.0786889e-38
0.83403426 0.18460912 0.61000186 1.0786889e-38
0.83702624 0.18492578 0.61000192 1.0786889e-38
0.84002978 0.18421698 0.61000198 1.0786889e-38
0.84304512 0.18453412 0.61000192 1.0786889e-38
0.84607232 0.1848525 0.61000198 1.0786889e-38
0.84911132 0.18413939 0.61000198 1.0786889e-38
0.85216224 0.18445824 0.61000204 1.0786889e-38
0.85522532 0.18477836 0.61000204 1.0786889e-38
0.85830045 0.18406087 0.61000204 1.0786889e-38
0.86138773 0.18438146 0.6100021 1.0786889e-38
0.86448717 0.18470332 0.61000216 1.0786889e-38
0.86759907 0.18398142 0.61000216 1.0786889e-38
0.33162948 0.18718453 0.60999852 9.7727368e-39
0.33502102 0.18772636 0.60999846 1.0694693e-38
0.33788776 0.18776865 0.60999852 1.0694693e-38
0.34049517 0.18721256 0.60999846 1.0694693e-38
0.34325397 0.18764964 0.60999858 1.0694693e-38
0.34616643 0.18769205 0.60999858 1.0694693e-38
0.34951568 0.1872413 0.60999864 1.0694693e-38
0.35302567 0.18779272 0.60999858 1.0694693e-38
0.35570964 0.1872281 0.6099987 1.0694693e-38
0.35869208 0.1872703 0.60999858 1.0694693e-38
0.36154813 0.18771516 0.60999864 1.0694693e-38
0.36456352 0.18775849 0.6099987 1.0694693e-38
0.36730659 0.18718807 0.6099987 1.0694693e-38
0.37020925 0.18763636 0.6099987 1.0694693e-38
0.37327406 0.18767983 0.6099987 1.0694693e-38
0.37606212 0.18710452 0.6099987 1.0694693e-38
0.37901253 0.18755625 0.60999876 1.0694693e-38
0.3819792 0.18801044 0.60999882 1.0694693e-38
0.38496214 0.18701962 0.60999882 1.0694693e-38
0.38796157 0.18747483 0.60999882 1.0694693e-38
0.39097762 0.18793257 0.60999888 1.0694693e-38
0.39401031 0.18693325 0.60999888 1.0694693e-38
0.39705998 0.18739204 0.60999894 1.0694693e-38
0.40012661 0.18785338 0.60999894 1.0694693e-38
0.40321037 0.18758088 0.60999894 1.0694693e-38
0.40631148 0.18730786 0.60999894 1.0694693e-38
0.40943003 0.18777287 0.60999894 1.0694693e-38
0.41256618 0.18749781 0.609999 1.0694693e-38
0.41572005 0.18722227 0.609999 1.0694693e-38
0.41889179 0.18769097 0.60999906 1.0694693e-38
0.42208159 0.18741333 0.60999906 1.0694693e-38
0.42448533 0.18701741 0.60999912 1.0694693e-38
0.42690048 0.18737109 0.60999906 1.0694693e-38
0.43013608 0.18784493 0.60999912 1.0694693e-38
0.43339029 0.18756494 0.60999918 1.0694693e-38
0.43666327 0.18728441 0.60999918 1.0694693e-38
0.43995515 0.18776211 0.60999918 1.0786889e-38
0.44243598 0.18812211 0.60999924 1.0786889e-38
0.4449288 0.1869565 0.60999918 1.0786889e-38
0.44826868 0.1874367 0.6099993 1.0786889e-38
0.45162806 0.18791972 0.6099993 1.0786889e-38
0.45528951 0.18716161 0.6099993 1.0786889e-38
0.45755386 0.18722756 0.6099993 1.0786889e-38
0.46011305 0.18759212 0.6099993 1.0786889e-38
0.4635421 0.18808058 0.6099993 1.0786889e-38
0.46699136 0.18701521 0.60999936 1.0786889e-38
0.46959117 0.18738207 0.60999942 1.0786889e-38
0.47220379 0.18775077 0.60999942 1.0786889e-38
0.47570464 0.18746005 0.60999942 1.0786889e-38
0.47834337 0.18704532 0.60999948 1.0786889e-38
0.48099518 0.18741602 0.60999948 1.0786889e-38
0.48454875 0.18791276 0.60999954 1.0786889e-38
0.4872272 0.18749534 0.60999954 1.0786889e-38
0.48991919 0.18707621 0.60999954 1.0786889e-38
0.49352664 0.1875757 0.60999954 1.0786889e-38
0.49624586 0.18795219 0.60999954 1.0786889e-38
0.49928308 0.18703933 0.60999954 1.0786889e-38
0.50264132 0.18723348 0.60999966 1.0786889e-38
0.50540221 0.18761209 0.60999954 1.0786889e-38
0.50817716 0.18799259 0.60999966 1.0786889e-38
0.51220697 0.18719745 0.60999966 1.0786889e-38
0.51469958 0.18726671 0.60999972 1.0786889e-38
0.51751745 0.18764937 0.60999966 1.0786889e-38
0.520347 0.18803361 0.60999972 1.0786889e-38
0.52350783 0.18710256 0.60999972 1.0786889e-38
0.52700305 0.1873008 0.60999978 1.0786889e-38
0.52987677 0.18768722 0.60999984 1.0786889e-38
0.53244382 0.18775813 0.60999984 1.0786889e-38
0.53566629 0.18764161 0.60999984 1.0786889e-38
0.53858227 0.18720573 0.6099999 1.0786889e-38
0.54151046 0.18759558 0.60999984 1.0786889e-38
0.54445398 0.18798745 0.6099999 1.0786889e-38
0.54741001 0.18754907 0.60999995 1.0786889e-38
0.55038166 0.18710884 0.6099999 1.0786889e-38
0.55336589 0.18750215 0.61000001 1.0786889e-38
0.55636597 0.18789756 0.61000001 1.0786889e-38
0.5593788 0.18745479 0.61000001 1.0786889e-38
0.56240767 0.18701009 0.61000001 1.0786889e-38
0.56544948 0.18740696 0.61000007 1.0786889e-38
0.56850761 0.18780595 0.61000007 1.0786889e-38
0.57157892 0.18735866 0.61000007 1.0786889e-38
0.5750106 0.18723696 0.61000013 1.0786889e-38
0.57776797 0.18730992 0.61000013 1.0786889e-38
0.58088589 0.18771257 0.61000013 1.0786889e-38
0.5840174 0.18811694 0.61000019 1.0786889e-38
0.58611411 0.18753004 0.61000019 1.0786889e-38
0.58927286 0.18707609 0.61000019 1.0786889e-38
0.59244543 0.18748155 0.61000025 1.0786889e-38
0.59563541 0.18788925 0.61000025 1.0786889e-38
0.5988394 0.18743262 0.61000025 1.0786889e-38
0.60098475 0.18770537 0.61000031 1.0786889e-38
0.60421693 0.18724659 0.61000031 1.0786889e-38
0.60746348 0.18765721 0.61000037 1.0786889e-38
0.61036444 0.1877325 0.61000037 1.0786889e-38
0.61400694 0.18760855 0.61000037 1.0786889e-38
0.61620265 0.1870071 0.61000037 1.0786889e-38
0.61951095 0.18742111 0.61000043 1.0786889e-38
0.62283403 0.18783697 0.61000043 1.0786889e-38
0.62505931 0.18811545 0.61000043 1.0786889e-38
0.62878555 0.18710466 0.61000049 1.0786889e-38
0.63178021 0.1871804 0.61000049 1.0786889e-38
0.63403565 0.18745965 0.61000049 1.0786889e-38
0.63743412 0.18788043 0.61000049 1.0786889e-38
0.64084798 0.187409 0.61000055 1.0786889e-38
0.64313424 0.18769054 0.61000055 1.0786889e-38
0.64657927 0.18721686 0.61000055 1.0786889e-38
0.65003991 0.18764073 0.61000067 1.0786889e-38
0.65235758 0.18792459 0.61000067 1.0786889e-38
0.65468317 0.18730614 0.61000061 1.0786889e-38
0.65857798 0.1871763 0.61000067 1.0786889e-38
0.66170824 0.18725391 0.61000073 1.0786889e-38
0.66406614 0.18753958 0.61000073 1.0786889e-38
0.66722363 0.18761785 0.61000067 1.0786889e-38
0.67118895 0.1874882 0.61000073 1.0786889e-38
0.67357969 0.18777624 0.61000073 1.0786889e-38
0.67597884 0.1871478 0.61000085 1.0786889e-38
0.67959428 0.18758102 0.61000085 1.0786889e-38
0.68322664 0.18801624 0.61000085 1.0786889e-38
0.68565959 0.18738382 0.61000091 1.0786889e-38
0.68810105 0.18767472 0.61000091 1.0786889e-38
0.69055122 0.18703948 0.61000091 1.0786889e-38
0.69424355 0.18747696 0.61000091 1.0786889e-38
0.69795352 0.18791656 0.61000091 1.0786889e-38
0.70043844 0.18727723 0.61000097 1.0786889e-38
0.70293224 0.18757103 0.61000097 1.0786889e-38
0.70710927 0.18743734 0.61000103 1.0786889e-38
0.7104671 0.18751836 0.61000103 1.0786889e-38
0.71299666 0.18781471 0.61000103 1.0786889e-38
0.7155354 0.18716833 0.61000109 1.0786889e-38
0.7180832 0.18746512 0.61000109 1.0786889e-38
0.72064012 0.18776298 0.61000109 1.0786889e-38
0.7244941 0.18726215 0.61000109 1.0786889e-38
0.72836661 0.18771069 0.61000115 1.0786889e-38
0.73096079 0.18801114 0.61000121 1.0786889e-38
0.73356438 0.18735689 0.61000121 1.0786889e-38
0.73617744 0.1876578 0.61000121 1.0786889e-38
0.73880005 0.18700051 0.61000127 1.0786889e-38
0.74143225 0.18730187 0.61000127 1.0786889e-38
0.74539983 0.18775614 0.61000127 1.0786889e-38
0.74938679 0.18724628 0.61000127 1.0786889e-38
0.75205785 0.18755031 0.61000133 1.0786889e-38
0.75473875 0.18785548 0.61000133 1.0786889e-38
0.75742948 0.18719004 0.61000139 1.0786889e-38
0.76013029 0.18749568 0.61000139 1.0786889e-38
0.76284099 0.18780243 0.61000139 1.0786889e-38
0.76556182 0.18713321 0.61000139 1.0786889e-38
0.76829273 0.18744043 0.61000144 1.0786889e-38
0.77286816 0.18730007 0.61000144 1.0786889e-38
0.7765469 0.18738455 0.6100015 1.0786889e-38
0.77931887 0.18769453 0.6100015 1.0786889e-38
0.78210127 0.1880057 0.61000156 1.0786889e-38
0.78489417 0.18732804 0.61000156 1.0786889e-38
0.78769761 0.18763968 0.61000162 1.0786889e-38
0.79051161 0.1879525 0.61000156 1.0786889e-38
0.79333627 0.18727089 0.61000162 1.0786889e-38
0.79617161 0.18758419 0.61000162 1.0786889e-38
0.79901773 0.1878987 0.61000168 1.0786889e-38
0.80187476 0.18721311 0.61000162 1.0786889e-38
0.80474257 0.18752809 0.61000168 1.0786889e-38
0.80762142 0.18784428 0.61000168 1.0786889e-38
0.81051123 0.18715465 0.61000168 1.0786889e-38
0.81341213 0.18747132 0.61000174 1.0786889e-38
0.81632423 0.18778923 0.61000174 1.0786889e-38
0.81924748 0.18709549 0.6100018 1.0786889e-38
0.822182 0.1874139 0.61000186 1.0786889e-38
0.82512784 0.18773353 0.61000186 1.0786889e-38
0.82808524 0.18703568 0.6100018 1.0786889e-38
0.83105397 0.18735582 0.61000192 1.0786889e-38
0.83403426 0.1876772 0.61000186 1.0786889e-38
0.83702624 0.18697515 0.61000192 1.0786889e-38
0.84002978 0.18729705 0.61000198 1.0786889e-38
0.84304512 0.18762021 0.61000192 1.0786889e-38
0.84607232 0.18794464 0.61000198 1.0786889e-38
0.84911132 0.18723759 0.61000198 1.0786889e-38
0.85216224 0.18756253 0.61000204 1.0786889e-38
0.85522532 0.18788877 0.61000204 1.0786889e-38
0.85830045 0.18717743 0.61000204 1.0786889e-38
0.86138773 0.18750419 0.6100021 1.0786889e-38
0.86448717 0.18783224 0.61000216 1.0786889e-38
0.86759907 0.18711655 0.61000216 1.0786889e-38
0.33143637 0.19020084 0.6099984 9.4961499e-39
0.33502102 0.19048847 0.60999846 1.0694693e-38
0.33775088 0.19093186 0.60999846 1.0694693e-38
0.3403576 0.19038332 0.60999846 1.0694693e-38
0.34325394 0.19043365 0.60999852 1.0694693e-38
0.34602737 0.1908804 0.60999858 1.0694693e-38
0.34931582 0.19030975 0.60999864 1.0694693e-38
0.35302567 0.19060276 0.60999858 1.0694693e-38
0.35599297 0.19065388 0.60999864 1.0694693e-38
0.35869205 0.19009542 0.6099987 1.0694693e-38
0.36154813 0.1905479 0.60999864 1.0694693e-38
0.36441958 0.19100282 0.6099987 1.0694693e-38
0.36730659 0.19003616 0.6099987 1.0694693e-38
0.37020925 0.19049215 0.6099987 1.0694693e-38
0.37312776 0.19095062 0.60999876 1.0694693e-38
0.37606212 0.18997592 0.60999876 1.0694693e-38
0.37901253 0.1904355 0.60999876 1.0694693e-38
0.3819792 0.19089758 0.60999876 1.0694693e-38
0.38481259 0.19032554 0.60999882 1.0694693e-38
0.38796157 0.19037791 0.60999882 1.0694693e-38
0.39097762 0.19084367 0.60999888 1.0694693e-38
0.39385828 0.19026673 0.60999894 1.0694693e-38
0.39705998 0.19031933 0.60999894 1.0694693e-38
0.40012661 0.19078884 0.60999894 1.0694693e-38
0.40321037 0.19052455 0.60999894 1.0694693e-38
0.40631148 0.1902598 0.60999894 1.0694693e-38
0.40943003 0.19073309 0.60999894 1.0694693e-38
0.41256618 0.1904664 0.609999 1.0694693e-38
0.41572002 0.19019923 0.60999906 1.0694693e-38
0.41889179 0.19067639 0.60999906 1.0694693e-38
0.42208159 0.19040726 0.60999906 1.0694693e-38
0.42448533 0.19001773 0.60999912 1.0694693e-38
0.42690051 0.19037783 0.60999906 1.0694693e-38
0.43013605 0.19086029 0.60999912 1.0694693e-38
0.43339032 0.19058898 0.60999918 1.0694693e-38
0.43666327 0.19031717 0.60999918 1.0694693e-38
0.43995515 0.19080362 0.60999918 1.0694693e-38
0.44243598 0.19117023 0.60999918 1.0694693e-38
0.44492877 0.19001123 0.60999924 1.0786889e-38
0.44826871 0.19050035 0.6099993 1.0786889e-38
0.45162806 0.1909923 0.6099993 1.0786889e-38
0.45500714 0.18994637 0.6099993 1.0786889e-38
0.45755386 0.19031593 0.6099993 1.0786889e-38
0.46011305 0.19068731 0.6099993 1.0786889e-38
0.46325549 0.19088443 0.60999936 1.0786889e-38
0.46699136 0.1901287 0.60999936 1.0786889e-38
0.46959114 0.19050249 0.60999942 1.0786889e-38
0.47220379 0.19087815 0.60999942 1.0786889e-38
0.47599724 0.19011603 0.60999942 1.0786889e-38
0.47834337 0.19018905 0.60999948 1.0786889e-38
0.48099518 0.19056681 0.60999948 1.0786889e-38
0.48454869 0.191073 0.60999948 1.0786889e-38
0.4872272 0.18987086 0.60999954 1.0786889e-38
0.48991919 0.19025075 0.60999954 1.0786889e-38
0.49352664 0.19075984 0.60999954 1.0786889e-38
0.49624586 0.19114357 0.60999954 1.0786889e-38
0.49897879 0.18992993 0.60999954 1.0786889e-38
0.50264132 0.19044191 0.60999966 1.0786889e-38
0.50540221 0.19082785 0.60999954 1.0786889e-38
0.50786823 0.19090374 0.60999966 1.0786889e-38
0.51189607 0.19011909 0.60999966 1.0786889e-38
0.51469958 0.19050723 0.60999972 1.0786889e-38
0.51751745 0.19089739 0.60999966 1.0786889e-38
0.520347 0.19047527 0.60999972 1.0786889e-38
0.52319115 0.19005141 0.60999978 1.0786889e-38
0.52700305 0.19057409 0.60999978 1.0786889e-38
0.52987677 0.19096816 0.60999984 1.0786889e-38
0.53308713 0.19003747 0.60999984 1.0786889e-38
0.53566629 0.19011387 0.60999984 1.0786889e-38
0.53858227 0.19050984 0.6099999 1.0786889e-38
0.54151046 0.19090748 0.60999984 1.0786889e-38
0.54445398 0.19047725 0.6099999 1.0786889e-38
0.54741001 0.19004479 0.60999995 1.0786889e-38
0.55038166 0.19044438 0.6099999 1.0786889e-38
0.55336589 0.19084564 0.61000001 1.0786889e-38
0.55603194 0.1909246 0.61000001 1.0786889e-38
0.5593788 0.1899744 0.61000001 1.0786889e-38
0.56240767 0.19037765 0.61000001 1.0786889e-38
0.56544948 0.19078261 0.61000007 1.0786889e-38
0.56816709 0.19086219 0.61000007 1.0786889e-38
0.57157892 0.18990265 0.61000007 1.0786889e-38
0.57466674 0.19030961 0.61000013 1.0786889e-38
0.57776797 0.19071835 0.61000013 1.0786889e-38
0.58053869 0.19079858 0.61000013 1.0786889e-38
0.5840174 0.19068576 0.61000019 1.0786889e-38
0.58611411 0.19010305 0.61000019 1.0786889e-38
0.58927292 0.19051518 0.61000019 1.0786889e-38
0.59244543 0.19092909 0.61000025 1.0786889e-38
0.59563541 0.19048128 0.61000025 1.0786889e-38
0.5988394 0.19003102 0.61000025 1.0786889e-38
0.60098475 0.19030806 0.61000031 1.0786889e-38
0.60421693 0.19072548 0.61000031 1.0786889e-38
0.60746348 0.19027284 0.61000037 1.0786889e-38
0.61109149 0.19015576 0.61000037 1.0786889e-38
0.61400694 0.19023725 0.61000037 1.0786889e-38
0.61620265 0.19051789 0.61000037 1.0786889e-38
0.61951089 0.19094071 0.61000043 1.0786889e-38
0.62283403 0.1904833 0.61000043 1.0786889e-38
0.62505931 0.19076623 0.61000043 1.0786889e-38
0.62841219 0.19030669 0.61000049 1.0786889e-38
0.63178021 0.19073266 0.61000049 1.0786889e-38
0.63403565 0.19101793 0.61000049 1.0786889e-38
0.63743412 0.19055592 0.61000049 1.0786889e-38
0.64084798 0.19009131 0.61000055 1.0786889e-38
0.64313424 0.19037741 0.61000055 1.0786889e-38
0.64657921 0.19080853 0.61000055 1.0786889e-38
0.65003991 0.1903414 0.61000067 1.0786889e-38
0.65235758 0.1906299 0.61000067 1.0786889e-38
0.65468317 0.19001608 0.61000061 1.0786889e-38
0.65818775 0.19044997 0.61000067 1.0786889e-38
0.66170824 0.19088586 0.61000073 1.0786889e-38
0.66406614 0.19026825 0.61000073 1.0786889e-38
0.668015 0.19014604 0.61000079 1.0786889e-38
0.67118895 0.19023108 0.61000073 1.0786889e-38
0.67357969 0.19052392 0.61000073 1.0786889e-38
0.67597884 0.19081774 0.61000085 1.0786889e-38
0.67959428 0.1903407 0.61000085 1.0786889e-38
0.68322664 0.19078317 0.61000085 1.0786889e-38
0.68565959 0.19015561 0.61000091 1.0786889e-38
0.68810105 0.19045138 0.61000091 1.0786889e-38
0.69055122 0.19074824 0.61000091 1.0786889e-38
0.69383234 0.1908356 0.61000091 1.0786889e-38
0.69795352 0.1907129 0.61000091 1.0786889e-38
0.70043844 0.19007853 0.61000097 1.0786889e-38
0.70293224 0.19037732 0.61000097 1.0786889e-38
0.70669067 0.19082767 0.61000103 1.0786889e-38
0.7104671 0.1903397 0.61000103 1.0786889e-38
0.71299666 0.19064111 0.61000103 1.0786889e-38
0.7155354 0.18999979 0.61000109 1.0786889e-38
0.7180832 0.19030166 0.61000109 1.0786889e-38
0.72064012 0.19060463 0.61000109 1.0786889e-38
0.72406489 0.19069354 0.61000109 1.0786889e-38
0.72836661 0.19056776 0.61000115 1.0786889e-38
0.73096079 0.1908734 0.61000121 1.0786889e-38
0.73356438 0.19022435 0.61000121 1.0786889e-38
0.73617744 0.19053048 0.61000121 1.0786889e-38
0.73880005 0.19083774 0.61000127 1.0786889e-38
0.74143225 0.19018506 0.61000127 1.0786889e-38
0.74539983 0.19064724 0.61000127 1.0786889e-38
0.74938679 0.19014534 0.61000127 1.0786889e-38
0.75205785 0.19045471 0.61000133 1.0786889e-38
0.75473875 0.19076522 0.61000133 1.0786889e-38
0.75742948 0.19010517 0.61000139 1.0786889e-38
0.76013029 0.19041619 0.61000139 1.0786889e-38
0.76284099 0.19072835 0.61000139 1.0786889e-38
0.76556182 0.19006455 0.61000139 1.0786889e-38
0.76829273 0.19037724 0.61000144 1.0786889e-38
0.77240956 0.19084859 0.61000144 1.0786889e-38
0.7765469 0.19033784 0.6100015 1.0786889e-38
0.77931887 0.19065337 0.6100015 1.0786889e-38
0.78210127 0.19097009 0.61000156 1.0786889e-38
0.78489417 0.19029801 0.61000156 1.0786889e-38
0.78769761 0.19061524 0.61000162 1.0786889e-38
0.79051161 0.19093369 0.61000156 1.0786889e-38
0.79333627 0.19025771 0.61000162 1.0786889e-38
0.79617161 0.19057669 0.61000162 1.0786889e-38
0.79901773 0.19089687 0.61000168 1.0786889e-38
0.80187476 0.19021699 0.61000162 1.0786889e-38
0.80474257 0.19053769 0.61000168 1.0786889e-38
0.80762142 0.19085965 0.61000168 1.0786889e-38
0.81051123 0.19017576 0.61000168 1.0786889e-38
0.81341213 0.19049823 0.61000174 1.0786889e-38
0.81632423 0.19082196 0.61000174 1.0786889e-38
0.81924748 0.19013406 0.6100018 1.0786889e-38
0.822182 0.19045833 0.61000186 1.0786889e-38
0.82512784 0.19078384 0.61000186 1.0786889e-38
0.82808524 0.19009189 0.6100018 1.0786889e-38
0.83105397 0.19041796 0.61000192 1.0786889e-38
0.83403426 0.19074531 0.61000186 1.0786889e-38
0.83702624 0.19004923 0.61000192 1.0786889e-38
0.84002978 0.19037712 0.61000198 1.0786889e-38
0.84304512 0.19070631 0.61000192 1.0786889e-38
0.84607232 0.19000606 0.61000198 1.0786889e-38
0.84911132 0.1903358 0.61000198 1.0786889e-38
0.85216224 0.19066682 0.61000204 1.0786889e-38
0.85522532 0.19099919 0.61000204 1.0786889e-38
0.85830045 0.19029398 0.61000204 1.0786889e-38
0.86138773 0.1906269 0.6100021 1.0786889e-38
0.86448717 0.18991818 0.61000216 1.0786889e-38
0.86759907 0.19025168 0.61000216 1.0786889e-38
0.33179849 0.19357881 0.60999846 9.957128e-39
0.33502102 0.19325057 0.60999846 1.0694693e-38
0.33775091 0.19370122 0.60999846 1.0694693e-38
0.34063274 0.19376019 0.60999852 1.0694693e-38
0.34325397 0.19321768 0.60999858 1.0694693e-38
0.34602737 0.19367182 0.60999858 1.0694693e-38
0.3495155 0.19354232 0.60999864 1.0694693e-38
0.35302567 0.19341281 0.60999858 1.0694693e-38
0.35585129 0.19387174 0.60999864 1.0694693e-38
0.35854965 0.19332111 0.6099987 1.0694693e-38
0.36154813 0.19338062 0.60999864 1.0694693e-38
0.36441958 0.19384319 0.6099987 1.0694693e-38
0.36716184 0.19328801 0.6099987 1.0694693e-38
0.37020922 0.19334795 0.6099987 1.0694693e-38
0.37312773 0.19381419 0.60999876 1.0694693e-38
0.37591499 0.1932544 0.60999876 1.0694693e-38
0.37901253 0.19331473 0.60999876 1.0694693e-38
0.38197917 0.19378473 0.60999882 1.0694693e-38
0.38496214 0.19353305 0.60999882 1.0694693e-38
0.3879616 0.19328097 0.60999882 1.0694693e-38
0.39097762 0.19375476 0.60999888 1.0694693e-38
0.39401031 0.19350089 0.60999894 1.0694693e-38
0.39706001 0.19324663 0.60999888 1.0694693e-38
0.40012661 0.1937243 0.60999894 1.0694693e-38
0.40321034 0.19346821 0.60999894 1.0694693e-38
0.40631151 0.19321172 0.60999894 1.0694693e-38
0.40943003 0.19369331 0.60999894 1.0694693e-38
0.41256618 0.19343498 0.609999 1.0694693e-38
0.41572002 0.19317622 0.60999906 1.0694693e-38
0.41889179 0.19366181 0.60999906 1.0694693e-38
0.42208159 0.19340117 0.60999906 1.0694693e-38
0.42448533 0.19301803 0.60999918 1.0694693e-38
0.42690045 0.19338459 0.60999906 1.0694693e-38
0.43013605 0.19387566 0.60999912 1.0694693e-38
0.43366227 0.19315028 0.60999918 1.0694693e-38
0.43666327 0.1933499 0.60999918 1.0694693e-38
0.43995515 0.19384512 0.60999918 1.0694693e-38
0.44243598 0.19421834 0.60999924 1.0694693e-38
0.44492877 0.19306597 0.60999924 1.0694693e-38
0.44826871 0.193564 0.60999918 1.0786889e-38
0.45162809 0.1940649 0.6099993 1.0786889e-38
0.45500714 0.19302794 0.6099993 1.0786889e-38
0.45755386 0.19340429 0.6099993 1.0786889e-38
0.46011305 0.19378248 0.6099993 1.0786889e-38
0.46354207 0.19351256 0.60999936 1.0786889e-38
0.46699136 0.19324218 0.60999936 1.0786889e-38
0.4695912 0.19362292 0.60999942 1.0786889e-38
0.47220379 0.1940055 0.60999942 1.0786889e-38
0.47570464 0.19294986 0.60999942 1.0786889e-38
0.47834337 0.19333276 0.60999948 1.0786889e-38
0.48099518 0.19371758 0.60999948 1.0786889e-38
0.48425171 0.19392659 0.60999948 1.0786889e-38
0.48722726 0.19303825 0.60999948 1.0786889e-38
0.48991919 0.1934253 0.60999954 1.0786889e-38
0.49352664 0.19394398 0.60999954 1.0786889e-38
0.49624586 0.19353712 0.60999954 1.0786889e-38
0.49897879 0.19312859 0.60999954 1.0786889e-38
0.50264132 0.19365031 0.60999966 1.0786889e-38
0.50540221 0.19404361 0.60999954 1.0786889e-38
0.50848609 0.19313931 0.60999966 1.0786889e-38
0.51189607 0.19335213 0.60999966 1.0786889e-38
0.51469958 0.19374776 0.60999972 1.0786889e-38
0.51720363 0.19383027 0.60999966 1.0786889e-38
0.520347 0.19291694 0.60999972 1.0786889e-38
0.52319115 0.19331451 0.60999978 1.0786889e-38
0.52700305 0.19384737 0.60999978 1.0786889e-38
0.52987677 0.19342886 0.60999984 1.0786889e-38
0.53276551 0.19300859 0.60999984 1.0786889e-38
0.53566629 0.19341022 0.60999984 1.0786889e-38
0.53858227 0.19381395 0.6099999 1.0786889e-38
0.54151046 0.19339141 0.60999984 1.0786889e-38
0.54445398 0.19296707 0.6099999 1.0786889e-38
0.54741001 0.19337241 0.60999995 1.0786889e-38
0.55038166 0.19377992 0.6099999 1.0786889e-38
0.55336589 0.19335325 0.61000001 1.0786889e-38
0.55669999 0.19324921 0.61000001 1.0786889e-38
0.5593788 0.19333389 0.61000001 1.0786889e-38
0.56240767 0.1937452 0.61000001 1.0786889e-38
0.56544948 0.19331434 0.61000007 1.0786889e-38
0.56884813 0.19320919 0.61000007 1.0786889e-38
0.57157892 0.19329461 0.61000007 1.0786889e-38
0.57466674 0.19370982 0.61000013 1.0786889e-38
0.57776797 0.19412681 0.61000013 1.0786889e-38
0.58123308 0.1931684 0.61000013 1.0786889e-38
0.5840174 0.19325459 0.61000019 1.0786889e-38
0.58611411 0.19353372 0.61000019 1.0786889e-38
0.58927286 0.19395426 0.61000019 1.0786889e-38
0.59244543 0.19351475 0.61000025 1.0786889e-38
0.59563547 0.1930733 0.61000025 1.0786889e-38
0.5988394 0.19349559 0.61000025 1.0786889e-38
0.60098475 0.19377834 0.61000031 1.0786889e-38
0.60385704 0.19386677 0.61000031 1.0786889e-38
0.60746348 0.19288848 0.61000037 1.0786889e-38
0.61072797 0.1933144 0.61000037 1.0786889e-38
0.61400694 0.1937422 0.61000037 1.0786889e-38
0.61620265 0.19402868 0.61000037 1.0786889e-38
0.61951089 0.1935804 0.61000043 1.0786889e-38
0.62314153 0.19363548 0.61064631 1.0786889e-38
0.62505931 0.193417 0.61000043 1.0786889e-38
0.62841219 0.19384998 0.61000043 1.0786889e-38
0.63178021 0.19339687 0.61000049 1.0786889e-38
0.63403565 0.19368662 0.61000049 1.0786889e-38
0.63743412 0.1932314 0.61000049 1.0786889e-38
0.64084798 0.19366772 0.61000055 1.0786889e-38
0.64313424 0.19395992 0.61000055 1.0786889e-38
0.64657927 0.19350229 0.61000055 1.0786889e-38
0.65003991 0.19304207 0.61000067 1.0786889e-38
0.65235758 0.19333519 0.61000067 1.0786889e-38
0.65468317 0.19362932 0.61000061 1.0786889e-38
0.6577974 0.19372106 0.61000067 1.0786889e-38
0.66170824 0.19360982 0.61000073 1.0786889e-38
0.66406614 0.19299692 0.61000073 1.0786889e-38
0.66761929 0.19344157 0.61000073 1.0786889e-38
0.67118895 0.19388829 0.61000073 1.0786889e-38
0.67357969 0.19327159 0.61000073 1.0786889e-38
0.67597884 0.19357023 0.61000085 1.0786889e-38
0.67959434 0.19310038 0.61000085 1.0786889e-38
0.68322664 0.19355011 0.61000085 1.0786889e-38
0.68565959 0.19385134 0.61000091 1.0786889e-38
0.68810105 0.19322807 0.61000091 1.0786889e-38
0.69055122 0.1935298 0.61000091 1.0786889e-38
0.69465476 0.19341482 0.61000091 1.0786889e-38
0.69795352 0.19350925 0.61000091 1.0786889e-38
0.70043844 0.19381361 0.61000097 1.0786889e-38
0.70293224 0.19318362 0.61000097 1.0786889e-38
0.70669067 0.19364145 0.61000103 1.0786889e-38
0.7104671 0.19316104 0.61000103 1.0786889e-38
0.71299666 0.1934675 0.61000103 1.0786889e-38
0.7155354 0.19377506 0.61000109 1.0786889e-38
0.7180832 0.19313821 0.61000109 1.0786889e-38
0.72064012 0.19344628 0.61000109 1.0786889e-38
0.72492337 0.19332857 0.61000115 1.0786889e-38
0.72836661 0.19342485 0.61000115 1.0786889e-38
0.73096079 0.19373566 0.61000121 1.0786889e-38
0.73356438 0.19309181 0.61000121 1.0786889e-38
0.73617744 0.19340315 0.61000121 1.0786889e-38
0.73880005 0.19371565 0.61000127 1.0786889e-38
0.74143225 0.19306824 0.61000127 1.0786889e-38
0.74539983 0.19353834 0.61000127 1.0786889e-38
0.74938679 0.19401075 0.61000127 1.0786889e-38
0.75205785 0.19335909 0.61000133 1.0786889e-38
0.75473875 0.19367497 0.61000133 1.0786889e-38
0.75742948 0.19302028 0.61000139 1.0786889e-38
0.76013029 0.1933367 0.61000139 1.0786889e-38
0.76284099 0.19365427 0.61000139 1.0786889e-38
0.76556182 0.19397303 0.61000139 1.0786889e-38
0.76829273 0.19331405 0.61000144 1.0786889e-38
0.77240956 0.19379361 0.61000144 1.0786889e-38
0.7765469 0.19329113 0.6100015 1.0786889e-38
0.77931887 0.1936122 0.6100015 1.0786889e-38
0.78210127 0.19393447 0.61000156 1.0786889e-38
0.78489417 0.19326797 0.61000156 1.0786889e-38
0.78769761 0.1935908 0.61000162 1.0786889e-38
0.79051161 0.19391488 0.61000156 1.0786889e-38
0.79333627 0.19324455 0.61000162 1.0786889e-38
0.79617161 0.19356917 0.61000162 1.0786889e-38
0.79901773 0.19389504 0.61000168 1.0786889e-38
0.80187476 0.19322085 0.61000162 1.0786889e-38
0.80474257 0.19354729 0.61000168 1.0786889e-38
0.80762142 0.19387498 0.61000168 1.0786889e-38
0.81051123 0.19319689 0.61000168 1.0786889e-38
0.81341213 0.19352515 0.61000174 1.0786889e-38
0.81632423 0.19385469 0.61000174 1.0786889e-38
0.81924748 0.19317263 0.6100018 1.0786889e-38
0.822182 0.19350275 0.61000186 1.0786889e-38
0.82512784 0.19383416 0.61000186 1.0786889e-38
0.82808524 0.19314811 0.6100018 1.0786889e-38
0.83105397 0.1934801 0.61000192 1.0786889e-38
0.83403426 0.1938134 0.61000186 1.0786889e-38
0.83702624 0.1931233 0.61000192 1.0786889e-38
0.84002978 0.19345719 0.61000198 1.0786889e-38
0.84304512 0.19379239 0.61000192 1.0786889e-38
0.84607232 0.19309819 0.61000198 1.0786889e-38
0.84911132 0.193434 0.61000198 1.0786889e-38
0.85216224 0.19377112 0.61000204 1.0786889e-38
0.85522532 0.1930728 0.61000204 1.0786889e-38
0.85830045 0.19341055 0.61000204 1.0786889e-38
0.86138773 0.19374962 0.6100021 1.0786889e-38
0.86448717 0.19304708 0.61000216 1.0786889e-38
0.86759907 0.19338679 0.61000216 1.0786889e-38
0.33162951 0.1968203 0.60999846 9.7727368e-39
0.33488488 0.19640389 0.60999846 1.0694693e-38
0.33775088 0.1964706 0.60999846 1.0694693e-38
0.34049514 0.19693093 0.60999852 1.0694693e-38
0.34311566 0.19639601 0.60999858 1.0694693e-38
0.34602737 0.19646323 0.60999858 1.0694693e-38
0.34971571 0.19677658 0.60999864 1.0694693e-38
0.35302567 0.19622284 0.60999858 1.0694693e-38
0.35585129 0.19668929 0.6099987 1.0694693e-38
0.35883445 0.1967577 0.6099987 1.0694693e-38
0.36154813 0.19621336 0.60999864 1.0694693e-38
0.36441958 0.19668359 0.6099987 1.0694693e-38
0.36745134 0.19675252 0.6099987 1.0694693e-38
0.37020922 0.19620375 0.6099987 1.0694693e-38
0.37312773 0.19667776 0.60999876 1.0694693e-38
0.3762092 0.19674727 0.6099987 1.0694693e-38
0.37901253 0.19619396 0.60999876 1.0694693e-38
0.3819792 0.19667186 0.60999882 1.0694693e-38
0.38511172 0.19674191 0.60999882 1.0694693e-38
0.38796157 0.19618404 0.60999882 1.0694693e-38
0.39097762 0.19666585 0.60999888 1.0694693e-38
0.39401031 0.19642007 0.60999894 1.0694693e-38
0.39705998 0.19617392 0.60999894 1.0694693e-38
0.40012661 0.19665977 0.60999894 1.0694693e-38
0.40321034 0.19641188 0.60999894 1.0694693e-38
0.40631148 0.19616365 0.60999894 1.0694693e-38
0.40943003 0.19665354 0.60999894 1.0694693e-38
0.41256616 0.19640355 0.609999 1.0694693e-38
0.41572005 0.19615319 0.60999906 1.0694693e-38
0.41889179 0.19664724 0.60999906 1.0694693e-38
0.42208159 0.19639508 0.60999906 1.0694693e-38
0.42448533 0.19601834 0.60999918 1.0694693e-38
0.42690045 0.19639134 0.60999906 1.0694693e-38
0.43013608 0.19689102 0.60999912 1.0694693e-38
0.43339032 0.19588156 0.60999912 1.0694693e-38
0.43666327 0.19638266 0.60999918 1.0694693e-38
0.43995512 0.19688663 0.60999918 1.0694693e-38
0.44243598 0.19650443 0.60999924 1.0694693e-38
0.44492877 0.19612072 0.60999924 1.0694693e-38
0.44826871 0.19662765 0.60999924 1.0694693e-38
0.45134735 0.19683863 0.6099993 1.0694693e-38
0.45500714 0.19610955 0.6099993 1.0786889e-38
0.45755386 0.19649266 0.6099993 1.0786889e-38
0.46011305 0.19687766 0.60999936 1.0786889e-38
0.46382871 0.1961426 0.6099993 1.0786889e-38
0.46699136 0.19635569 0.6099993 1.0786889e-38
0.46959117 0.19674334 0.60999942 1.0786889e-38
0.47191295 0.19682872 0.60999936 1.0786889e-38
0.47570467 0.19608654 0.60999942 1.0786889e-38
0.47834337 0.19647649 0.60999948 1.0786889e-38
0.48099518 0.19686836 0.60999948 1.0786889e-38
0.48484576 0.19612002 0.60999954 1.0786889e-38
0.48722726 0.19620565 0.60999948 1.0786889e-38
0.48991919 0.19659984 0.60999954 1.0786889e-38
0.4932251 0.19681843 0.60999954 1.0786889e-38
0.49624586 0.19593066 0.60999954 1.0786889e-38
0.49897879 0.19632725 0.60999954 1.0786889e-38
0.50264132 0.19685873 0.60999966 1.0786889e-38
0.50540221 0.19645543 0.60999954 1.0786889e-38
0.50817716 0.19605048 0.60999966 1.0786889e-38
0.51189607 0.19658521 0.60999966 1.0786889e-38
0.51469958 0.19698828 0.60999972 1.0786889e-38
0.51783115 0.19608457 0.60999966 1.0786889e-38
0.520347 0.19617251 0.60999972 1.0786889e-38
0.52319115 0.19657765 0.60999972 1.0786889e-38
0.5266844 0.19680227 0.60999978 1.0786889e-38
0.52987677 0.19588956 0.60999984 1.0786889e-38
0.53276551 0.19629723 0.60999978 1.0786889e-38
0.53566629 0.19670658 0.60999984 1.0786889e-38
0.5382576 0.1967967 0.6099999 1.0786889e-38
0.54151046 0.19587535 0.60999984 1.0786889e-38
0.54445404 0.19628683 0.6099999 1.0786889e-38
0.54741001 0.19670004 0.60999995 1.0786889e-38
0.5500508 0.19679101 0.6099999 1.0786889e-38
0.55336589 0.19586086 0.61000001 1.0786889e-38
0.55636597 0.19627623 0.61000001 1.0786889e-38
0.5593788 0.19669338 0.61000001 1.0786889e-38
0.56207043 0.19678521 0.61000001 1.0786889e-38
0.56544948 0.19584608 0.61000007 1.0786889e-38
0.56850761 0.19626544 0.61000001 1.0786889e-38
0.57157892 0.1966866 0.61000007 1.0786889e-38
0.57432294 0.1967793 0.61000007 1.0786889e-38
0.57776797 0.19668315 0.61000013 1.0786889e-38
0.58088589 0.19625443 0.61000013 1.0786889e-38
0.5840174 0.19667968 0.61000019 1.0786889e-38
0.58611411 0.1969644 0.61000019 1.0786889e-38
0.58927286 0.19653358 0.61000019 1.0786889e-38
0.59244543 0.1961004 0.61000025 1.0786889e-38
0.59563541 0.19652931 0.61000025 1.0786889e-38
0.5988394 0.19696015 0.61000025 1.0786889e-38
0.60098475 0.19638105 0.61000031 1.0786889e-38
0.60457689 0.19628139 0.61000031 1.0786889e-38
0.60746348 0.196376 0.61000037 1.0786889e-38
0.61072797 0.1968106 0.61000037 1.0786889e-38
0.61400694 0.19637091 0.61000037 1.0786889e-38
0.61620265 0.19666177 0.61000037 1.0786889e-38
0.61951095 0.1962201 0.61000043 1.0786889e-38
0.62283403 0.19665807 0.61000043 1.0786889e-38
0.62505931 0.19695137 0.61000043 1.0786889e-38
0.62841219 0.19650747 0.61000049 1.0786889e-38
0.63178021 0.19606107 0.61000049 1.0786889e-38
0.63403565 0.19635533 0.61000049 1.0786889e-38
0.63743407 0.19679873 0.61000049 1.0786889e-38
0.64084798 0.19635004 0.61000055 1.0786889e-38
0.64313424 0.19664679 0.61000055 1.0786889e-38
0.64657927 0.19619605 0.61000055 1.0786889e-38
0.65003991 0.19664295 0.61000067 1.0786889e-38
0.65235758 0.19694224 0.61000067 1.0786889e-38
0.65468317 0.19633926 0.61000061 1.0786889e-38
0.65857798 0.19623534 0.61000067 1.0786889e-38
0.66170824 0.1963338 0.61000073 1.0786889e-38
0.66406614 0.19663516 0.61000073 1.0786889e-38
0.66722363 0.19673447 0.61000067 1.0786889e-38
0.67118895 0.19663119 0.61000073 1.0786889e-38
0.67357969 0.19601926 0.61000073 1.0786889e-38
0.67597884 0.19632268 0.61000085 1.0786889e-38
0.67959428 0.19677997 0.61000085 1.0786889e-38
0.68322664 0.19631705 0.61000085 1.0786889e-38
0.68565959 0.19662313 0.61000091 1.0786889e-38
0.68810105 0.19600473 0.61000091 1.0786889e-38
0.69055122 0.19631135 0.61000091 1.0786889e-38
0.69424355 0.19677342 0.61000091 1.0786889e-38
0.69795352 0.1963056 0.61000091 1.0786889e-38
0.70043844 0.19661492 0.61000097 1.0786889e-38
0.70293224 0.19598991 0.61000097 1.0786889e-38
0.70669067 0.19645527 0.61000103 1.0786889e-38
0.7104671 0.19692282 0.61000103 1.0786889e-38
0.71299666 0.19629389 0.61000103 1.0786889e-38
0.7155354 0.19660652 0.61000109 1.0786889e-38
0.7180832 0.19597477 0.61000109 1.0786889e-38
0.72064012 0.19628793 0.61000109 1.0786889e-38
0.72449416 0.19675998 0.61000109 1.0786889e-38
0.72836661 0.19628192 0.61000115 1.0786889e-38
0.73096079 0.19659793 0.61000121 1.0786889e-38
0.73356438 0.19595927 0.61000121 1.0786889e-38
0.73617744 0.19627583 0.61000121 1.0786889e-38
0.73880005 0.19659357 0.61000127 1.0786889e-38
0.74143225 0.19691247 0.61000127 1.0786889e-38
0.74539983 0.19642943 0.61000127 1.0786889e-38
0.74938679 0.1969098 0.61000127 1.0786889e-38
0.75205785 0.19626349 0.61000133 1.0786889e-38
0.75473875 0.19658472 0.61000133 1.0786889e-38
0.75742948 0.1969071 0.61000139 1.0786889e-38
0.76013029 0.1962572 0.61000139 1.0786889e-38
0.76284099 0.1965802 0.61000139 1.0786889e-38
0.76556182 0.19690439 0.61000139 1.0786889e-38
0.76829273 0.19625086 0.61000144 1.0786889e-38
0.77240956 0.19673866 0.61000144 1.0786889e-38
0.7765469 0.19624443 0.6100015 1.0786889e-38
0.77931887 0.19657104 0.6100015 1.0786889e-38
0.78210127 0.19689886 0.61000156 1.0786889e-38
0.78489417 0.19623794 0.61000156 1.0786889e-38
0.78769761 0.19656637 0.61000162 1.0786889e-38
0.79051161 0.19689605 0.61000156 1.0786889e-38
0.79333627 0.19623137 0.61000162 1.0786889e-38
0.79617161 0.19656166 0.61000162 1.0786889e-38
0.79901773 0.1968932 0.61000168 1.0786889e-38
0.80187476 0.19622472 0.61000162 1.0786889e-38
0.80474257 0.1965569 0.61000168 1.0786889e-38
0.80762142 0.19689034 0.61000168 1.0786889e-38
0.81051123 0.196218 0.61000168 1.0786889e-38
0.81341213 0.19655207 0.61000174 1.0786889e-38
0.81632423 0.19688742 0.61000174 1.0786889e-38
0.81924748 0.19621119 0.6100018 1.0786889e-38
0.822182 0.19654718 0.61000186 1.0786889e-38
0.82512784 0.19688447 0.61000186 1.0786889e-38
0.82808524 0.19620433 0.6100018 1.0786889e-38
0.83105397 0.19654225 0.61000192 1.0786889e-38
0.83403426 0.1968815 0.61000186 1.0786889e-38
0.83702624 0.19619738 0.61000192 1.0786889e-38
0.84002978 0.19653726 0.61000198 1.0786889e-38
0.84304512 0.19687849 0.61000192 1.0786889e-38
0.84607232 0.19619033 0.61000198 1.0786889e-38
0.84911132 0.1965322 0.61000198 1.0786889e-38
0.85216224 0.19687542 0.61000204 1.0786889e-38
0.85522532 0.1961832 0.61000204 1.0786889e-38
0.85830045 0.19652709 0.61000204 1.0786889e-38
0.86138773 0.19687235 0.6100021 1.0786889e-38
0.86448717 0.19617599 0.61000216 1.0786889e-38
0.86759907 0.19652192 0.61000216 1.0786889e-38
0.33162951 0.19957335 0.60999846 9.7727368e-39
0.33515716 0.19976462 0.60999846 1.0694693e-38
0.33775088 0.19923998 0.60999846 1.0694693e-38
0.34049517 0.19970763 0.60999846 1.0694693e-38
0.34339222 0.19978341 0.60999858 1.0694693e-38
0.34602737 0.19925466 0.60999858 1.0694693e-38
0.34951571 0.19984446 0.60999864 1.0694693e-38
0.3530257 0.1990329 0.60999858 1.0694693e-38
0.35585129 0.19950686 0.6099987 1.0694693e-38
0.35869205 0.19998339 0.6099987 1.0694693e-38
0.36154813 0.19904611 0.60999864 1.0694693e-38
0.36441958 0.19952397 0.6099987 1.0694693e-38
0.36730659 0.2000044 0.6099987 1.0694693e-38
0.37020922 0.19905955 0.6099987 1.0694693e-38
0.3731277 0.19954133 0.60999876 1.0694693e-38
0.3760621 0.20002577 0.6099987 1.0694693e-38
0.37901253 0.19907323 0.60999876 1.0694693e-38
0.3819792 0.199559 0.60999882 1.0694693e-38
0.38496214 0.20004748 0.60999882 1.0694693e-38
0.38796163 0.19908708 0.60999888 1.0694693e-38
0.39097762 0.19957694 0.60999888 1.0694693e-38
0.39416239 0.19965605 0.60999888 1.0694693e-38
0.39706004 0.19910122 0.60999888 1.0694693e-38
0.40012661 0.19959523 0.60999894 1.0694693e-38
0.40336496 0.19967504 0.60999894 1.0694693e-38
0.40631151 0.19911557 0.60999894 1.0694693e-38
0.40943003 0.19961378 0.60999894 1.0694693e-38
0.41272339 0.19969432 0.609999 1.0694693e-38
0.41572005 0.19913018 0.60999906 1.0694693e-38
0.41889179 0.19963267 0.60999906 1.0694693e-38
0.42208159 0.19938901 0.60999906 1.0694693e-38
0.42448533 0.19901866 0.60999912 1.0694693e-38
0.42690045 0.19939809 0.60999906 1.0694693e-38
0.43013608 0.19990638 0.60999912 1.0694693e-38
0.43339029 0.19890559 0.60999912 1.0694693e-38
0.43666327 0.1994154 0.60999918 1.0694693e-38
0.43995512 0.19992815 0.60999918 1.0694693e-38
0.44243598 0.19879051 0.60999924 1.0694693e-38
0.44492877 0.19917548 0.60999924 1.0694693e-38
0.44826868 0.19969128 0.60999924 1.0694693e-38
0.45162809 0.19944137 0.6099993 1.0694693e-38
0.45500714 0.19919112 0.6099993 1.0786889e-38
0.45755386 0.19958103 0.6099993 1.0786889e-38
0.46011305 0.19997285 0.6099993 1.0786889e-38
0.4635421 0.19894569 0.6099993 1.0786889e-38
0.46699136 0.19946918 0.60999936 9.8642079e-39
0.4695912 0.19908366 0.60999942 1.0786889e-38
0.47249469 0.19900076 0.60999942 9.6790964e-39
0.47570464 0.19843906 0.60999942 1.0786889e-38
0.47834337 0.19883429 0.60999948 1.0786889e-38
0.48129043 0.19980121 0.60999948 1.0694694e-38
0.48454872 0.1989736 0.60999954 1.0786889e-38
0.48722726 0.19937301 0.60999948 1.0786889e-38
0.48991919 0.19977438 0.60999954 1.0786889e-38
0.49352661 0.19951564 0.60999954 1.0786889e-38
0.49624586 0.19912204 0.60999954 1.0786889e-38
0.49897879 0.19952591 0.60999954 1.0786889e-38
0.50233513 0.19975431 0.60999966 1.0786889e-38
0.50540221 0.19886726 0.60999954 1.0786889e-38
0.50817716 0.19927363 0.60999966 1.0786889e-38
0.51189607 0.19981825 0.60999966 1.0786889e-38
0.51469958 0.19941868 0.60999972 1.0786889e-38
0.51751745 0.19901747 0.60999966 1.0786889e-38
0.520347 0.19942807 0.60999972 1.0786889e-38
0.52319115 0.19984078 0.60999978 1.0786889e-38
